4.55 4.54 4.53 4.52 4.51 4.50 4.48 4.47 4.46 4.44 4.42 4.40 4.38 4.35 4.33 4.29 4.26 4.23 4.20 4.17 4.15 4.13 4.11 4.10 4.08 4.06 4.05 4.03 4.02 4.00 3.98 3.95 3.90 3.83 3.68 3.56 3.75 3.82 3.85 3.87 3.88 3.88 3.87 3.86 3.84 3.80 3.78 3.81 3.82 3.82 3.82 3.81 3.80 3.78 3.76 3.72 3.63 3.28 3.54 3.57 3.55 3.49 3.25 2.82 3.18 3.00 2.52 2.35 0.11 6.00 6.00 6.00 6.00 6.00 6.00 0.56 6.00 6.00 6.00 6.00 6.00 6.00 6.00 6.00 6.00 6.00 6.00 6.00 6.00 6.00 6.00 6.00 6.00 6.00 6.00 6.00 6.00 6.00 6.00 6.00 6.00 6.00 6.00 6.00 6.00 6.00 6.00 6.00 6.00 6.00 6.00 6.00 6.00 6.00 6.00 6.00 0.76 6.00 6.00 6.00 6.00 6.00 6.00 6.00 6.00 6.00 6.00 6.00 6.00 6.00 6.00 6.00 6.00 6.00 6.00 6.00 6.00 6.00 6.00 6.00 6.00 6.00 6.00 6.00 6.00 6.00 6.00 6.00 6.00 6.00 6.00 6.00 6.00 6.00 6.00 6.00 6.00 6.00 6.00 6.00 6.00 6.00 6.00 6.00 6.00 6.00 6.00 6.00 6.00 6.00 6.00 6.00 6.00 6.00 6.00 6.00 6.00 6.00 6.00 6.00 6.00 6.00 6.00 6.00 6.00 6.00 6.00 6.00 6.00 6.00 6.00 6.00 6.00 6.00 6.00 6.00 6.00 6.00 6.00 6.00 6.00 6.00 2.68 1.52 3.59 3.71 3.79 3.86 3.91 3.95 3.99 4.02 4.05 4.08 4.11 4.13 4.15 4.17 4.19 4.21 4.23 4.25 4.26 4.28 4.29 4.30 4.32 4.33 4.34 4.35 4.37 4.38 4.39 4.40 4.41 4.42 4.43 4.44 4.44 4.45
4.55 4.54 4.53 4.52 4.51 4.50 4.48 4.47 4.45 4.44 4.42 4.39 4.37 4.34 4.31 4.26 4.22 4.17 4.14 4.10 4.08 4.05 4.04 4.02 4.00 3.99 3.97 3.95 3.94 3.92 3.90 3.86 3.81 3.72 3.59 3.31 3.57 3.65 3.75 3.78 3.79 3.79 3.79 3.77 3.74 3.63 3.47 3.68 3.72 3.73 3.72 3.72 3.72 3.70 3.67 3.62 3.53 3.20 3.34 3.44 3.43 3.39 3.28 3.05 2.62 2.35 2.31 6.00 6.00 6.00 6.00 6.00 6.00 6.00 6.00 6.00 0.84 6.00 6.00 6.00 6.00 6.00 6.00 6.00 6.00 6.00 6.00 6.00 6.00 6.00 6.00 6.00 6.00 6.00 6.00 6.00 6.00 6.00 6.00 6.00 6.00 6.00 6.00 6.00 6.00 6.00 6.00 6.00 6.00 6.00 6.00 6.00 6.00 6.00 6.00 6.00 6.00 6.00 6.00 6.00 6.00 6.00 6.00 6.00 6.00 6.00 6.00 6.00 6.00 6.00 6.00 6.00 6.00 6.00 6.00 6.00 6.00 6.00 6.00 6.00 6.00 6.00 6.00 6.00 6.00 6.00 6.00 6.00 6.00 6.00 6.00 6.00 6.00 6.00 6.00 6.00 6.00 6.00 6.00 6.00 6.00 6.00 6.00 6.00 6.00 6.00 6.00 6.00 6.00 6.00 6.00 6.00 6.00 6.00 6.00 6.00 6.00 6.00 6.00 6.00 6.00 6.00 6.00 6.00 6.00 6.00 6.00 6.00 6.00 6.00 6.00 6.00 6.00 6.00 6.00 6.00 6.00 6.00 6.00 6.00 6.00 1.95 3.41 3.59 3.69 3.76 3.82 3.88 3.92 3.96 4.00 4.03 4.06 4.08 4.11 4.13 4.15 4.17 4.19 4.21 4.23 4.25 4.26 4.28 4.29 4.31 4.32 4.33 4.34 4.35 4.37 4.38 4.39 4.40 4.41 4.42 4.43 4.44 4.44 4.45
4.55 4.54 4.53 4.52 4.51 4.49 4.48 4.47 4.45 4.43 4.41 4.39 4.36 4.33 4.29 4.23 4.15 4.07 4.02 3.98 3.94 3.91 3.91 3.89 3.88 3.86 3.84 3.79 3.80 3.79 3.77 3.74 3.67 3.44 3.27 2.65 2.83 3.47 3.61 3.65 3.67 3.66 3.61 3.63 3.59 3.46 3.22 3.51 3.57 3.57 3.06 3.57 3.58 3.56 3.40 3.46 3.39 3.22 3.08 3.23 2.95 3.19 2.78 2.88 2.41 1.25 0.78 6.00 6.00 6.00 6.00 6.00 6.00 6.00 6.00 6.00 6.00 6.00 6.00 6.00 6.00 6.00 6.00 6.00 6.00 6.00 6.00 6.00 6.00 6.00 6.00 6.00 6.00 6.00 6.00 6.00 6.00 6.00 6.00 6.00 6.00 6.00 6.00 6.00 6.00 6.00 6.00 6.00 6.00 6.00 6.00 6.00 6.00 6.00 6.00 6.00 6.00 6.00 6.00 6.00 6.00 6.00 6.00 6.00 6.00 6.00 6.00 6.00 6.00 6.00 6.00 6.00 6.00 6.00 6.00 6.00 6.00 6.00 6.00 6.00 6.00 6.00 6.00 6.00 6.00 6.00 6.00 6.00 6.00 6.00 6.00 6.00 6.00 6.00 6.00 6.00 6.00 6.00 6.00 6.00 6.00 6.00 6.00 6.00 6.00 6.00 6.00 6.00 6.00 6.00 6.00 6.00 6.00 6.00 6.00 6.00 6.00 6.00 6.00 6.00 6.00 6.00 6.00 6.00 6.00 6.00 6.00 6.00 6.00 6.00 6.00 6.00 6.00 6.00 6.00 6.00 6.00 6.00 6.00 6.00 3.22 3.44 3.56 3.65 3.73 3.79 3.84 3.89 3.93 3.97 4.00 4.03 4.06 4.09 4.11 4.13 4.16 4.18 4.19 4.21 4.23 4.25 4.26 4.28 4.29 4.31 4.32 4.33 4.34 4.35 4.37 4.38 4.39 4.40 4.41 4.42 4.43 4.44 4.44 4.45
4.55 4.54 4.53 4.52 4.51 4.49 4.48 4.47 4.45 4.43 4.41 4.39 4.36 4.33 4.28 4.20 6.00 6.00 6.00 6.00 6.00 6.00 6.00 6.00 6.00 6.00 6.00 6.00 6.00 6.00 6.00 6.00 6.00 6.00 6.00 6.00 6.00 6.00 6.00 6.00 6.00 6.00 6.00 6.00 6.00 6.00 6.00 6.00 6.00 6.00 6.00 6.00 6.00 6.00 6.00 6.00 6.00 6.00 6.00 6.00 6.00 6.00 6.00 6.00 6.00 6.00 6.00 6.00 6.00 6.00 6.00 6.00 6.00 6.00 6.00 6.00 6.00 6.00 6.00 6.00 6.00 6.00 6.00 6.00 6.00 6.00 6.00 6.00 6.00 6.00 6.00 6.00 6.00 6.00 6.00 6.00 6.00 6.00 6.00 6.00 6.00 6.00 6.00 6.00 6.00 6.00 6.00 6.00 6.00 6.00 6.00 6.00 6.00 6.00 6.00 6.00 6.00 6.00 6.00 6.00 6.00 6.00 6.00 6.00 6.00 6.00 6.00 6.00 6.00 6.00 6.00 6.00 6.00 6.00 6.00 6.00 6.00 6.00 6.00 6.00 6.00 6.00 6.00 6.00 6.00 6.00 6.00 6.00 6.00 6.00 6.00 6.00 6.00 6.00 6.00 6.00 6.00 6.00 6.00 6.00 6.00 6.00 6.00 6.00 6.00 6.00 6.00 6.00 6.00 6.00 6.00 6.00 6.00 6.00 6.00 6.00 6.00 6.00 6.00 6.00 6.00 6.00 6.00 6.00 6.00 6.00 6.00 6.00 6.00 6.00 6.00 6.00 6.00 6.00 6.00 6.00 6.00 2.46 2.94 3.20 3.37 3.49 3.59 3.67 3.74 3.79 3.85 3.89 3.93 3.97 4.00 4.03 4.06 4.09 4.11 4.13 4.16 4.18 4.19 4.21 4.23 4.25 4.26 4.28 4.29 4.31 4.32 4.33 4.34 4.35 4.37 4.38 4.39 4.40 4.41 4.42 4.43 4.44 4.44 4.45
4.55 4.54 4.53 4.52 4.51 4.49 4.48 4.47 4.45 4.43 4.41 4.39 4.36 4.33 4.29 4.23 4.15 4.07 4.02 3.98 3.94 3.91 3.91 3.89 3.88 3.86 3.84 3.79 3.80 3.79 3.77 3.74 3.67 3.44 3.27 2.65 2.83 3.47 3.61 3.65 3.67 3.66 3.61 3.63 3.59 3.46 3.22 3.51 3.57 3.57 3.06 3.57 3.58 3.56 3.40 3.46 3.39 3.22 3.08 3.23 2.95 3.19 2.78 2.88 2.41 1.25 0.78 6.00 6.00 6.00 6.00 6.00 6.00 6.00 6.00 6.00 6.00 6.00 6.00 6.00 6.00 6.00 6.00 6.00 6.00 6.00 6.00 6.00 6.00 6.00 6.00 6.00 6.00 6.00 6.00 6.00 6.00 6.00 6.00 6.00 6.00 6.00 6.00 6.00 6.00 6.00 6.00 6.00 6.00 6.00 6.00 6.00 6.00 6.00 6.00 6.00 6.00 6.00 6.00 6.00 6.00 6.00 6.00 6.00 6.00 6.00 6.00 6.00 6.00 6.00 6.00 6.00 6.00 6.00 6.00 6.00 6.00 6.00 6.00 6.00 6.00 6.00 6.00 6.00 6.00 6.00 6.00 6.00 6.00 6.00 6.00 6.00 6.00 6.00 6.00 6.00 6.00 6.00 6.00 6.00 6.00 6.00 6.00 6.00 6.00 6.00 6.00 6.00 6.00 6.00 6.00 6.00 6.00 6.00 6.00 6.00 6.00 6.00 6.00 6.00 6.00 6.00 6.00 6.00 6.00 6.00 6.00 6.00 6.00 6.00 6.00 6.00 6.00 6.00 6.00 6.00 6.00 6.00 6.00 6.00 3.22 3.44 3.56 3.65 3.73 3.79 3.84 3.89 3.93 3.97 4.00 4.03 4.06 4.09 4.11 4.13 4.16 4.18 4.19 4.21 4.23 4.25 4.26 4.28 4.29 4.31 4.32 4.33 4.34 4.35 4.37 4.38 4.39 4.40 4.41 4.42 4.43 4.44 4.44 4.45
4.55 4.54 4.53 4.52 4.51 4.50 4.48 4.47 4.45 4.44 4.42 4.39 4.37 4.34 4.31 4.26 4.22 4.17 4.14 4.10 4.08 4.05 4.04 4.02 4.00 3.99 3.97 3.95 3.94 3.92 3.90 3.86 3.81 3.72 3.59 3.31 3.57 3.65 3.75 3.78 3.79 3.79 3.79 3.77 3.74 3.63 3.47 3.68 3.72 3.73 3.72 3.72 3.72 3.70 3.67 3.62 3.53 3.20 3.34 3.44 3.43 3.39 3.28 3.05 2.62 2.35 2.31 6.00 6.00 6.00 6.00 6.00 6.00 6.00 6.00 6.00 0.84 6.00 6.00 6.00 6.00 6.00 6.00 6.00 6.00 6.00 6.00 6.00 6.00 6.00 6.00 6.00 6.00 6.00 6.00 6.00 6.00 6.00 6.00 6.00 6.00 6.00 6.00 6.00 6.00 6.00 6.00 6.00 6.00 6.00 6.00 6.00 6.00 6.00 6.00 6.00 6.00 6.00 6.00 6.00 6.00 6.00 6.00 6.00 6.00 6.00 6.00 6.00 6.00 6.00 6.00 6.00 6.00 6.00 6.00 6.00 6.00 6.00 6.00 6.00 6.00 6.00 6.00 6.00 6.00 6.00 6.00 6.00 6.00 6.00 6.00 6.00 6.00 6.00 6.00 6.00 6.00 6.00 6.00 6.00 6.00 6.00 6.00 6.00 6.00 6.00 6.00 6.00 6.00 6.00 6.00 6.00 6.00 6.00 6.00 6.00 6.00 6.00 6.00 6.00 6.00 6.00 6.00 6.00 6.00 6.00 6.00 6.00 6.00 6.00 6.00 6.00 6.00 6.00 6.00 6.00 6.00 6.00 6.00 6.00 6.00 1.95 3.41 3.59 3.69 3.76 3.82 3.88 3.92 3.96 4.00 4.03 4.06 4.08 4.11 4.13 4.15 4.17 4.19 4.21 4.23 4.25 4.26 4.28 4.29 4.31 4.32 4.33 4.34 4.35 4.37 4.38 4.39 4.40 4.41 4.42 4.43 4.44 4.44 4.45
4.55 4.54 4.53 4.52 4.51 4.50 4.48 4.47 4.46 4.44 4.42 4.40 4.38 4.35 4.33 4.29 4.26 4.23 4.20 4.17 4.15 4.13 4.11 4.10 4.08 4.06 4.05 4.03 4.02 4.00 3.98 3.95 3.90 3.83 3.68 3.56 3.75 3.82 3.85 3.87 3.88 3.88 3.87 3.86 3.84 3.80 3.78 3.81 3.82 3.82 3.82 3.81 3.80 3.78 3.76 3.72 3.63 3.28 3.54 3.57 3.55 3.49 3.25 2.82 3.18 3.00 2.52 2.35 0.11 6.00 6.00 6.00 6.00 6.00 6.00 0.56 6.00 6.00 6.00 6.00 6.00 6.00 6.00 6.00 6.00 6.00 6.00 6.00 6.00 6.00 6.00 6.00 6.00 6.00 6.00 6.00 6.00 6.00 6.00 6.00 6.00 6.00 6.00 6.00 6.00 6.00 6.00 6.00 6.00 6.00 6.00 6.00 6.00 6.00 6.00 6.00 0.76 6.00 6.00 6.00 6.00 6.00 6.00 6.00 6.00 6.00 6.00 6.00 6.00 6.00 6.00 6.00 6.00 6.00 6.00 6.00 6.00 6.00 6.00 6.00 6.00 6.00 6.00 6.00 6.00 6.00 6.00 6.00 6.00 6.00 6.00 6.00 6.00 6.00 6.00 6.00 6.00 6.00 6.00 6.00 6.00 6.00 6.00 6.00 6.00 6.00 6.00 6.00 6.00 6.00 6.00 6.00 6.00 6.00 6.00 6.00 6.00 6.00 6.00 6.00 6.00 6.00 6.00 6.00 6.00 6.00 6.00 6.00 6.00 6.00 6.00 6.00 6.00 6.00 6.00 6.00 6.00 6.00 6.00 6.00 6.00 6.00 2.68 1.52 3.59 3.71 3.79 3.86 3.91 3.95 3.99 4.02 4.05 4.08 4.11 4.13 4.15 4.17 4.19 4.21 4.23 4.25 4.26 4.28 4.29 4.30 4.32 4.33 4.34 4.35 4.37 4.38 4.39 4.40 4.41 4.42 4.43 4.44 4.44 4.45
4.55 4.54 4.53 4.52 4.51 4.50 4.49 4.47 4.46 4.44 4.43 4.41 4.39 4.37 4.34 4.32 4.29 4.27 4.25 4.22 4.20 4.18 4.17 4.15 4.14 4.12 4.11 4.09 4.07 4.06 4.04 4.01 3.98 3.92 3.75 3.76 3.87 3.91 3.93 3.94 3.94 3.94 3.94 3.93 3.92 3.90 3.90 3.89 3.89 3.89 3.88 3.87 3.86 3.84 3.82 3.79 3.75 3.71 3.69 3.67 3.64 3.58 3.49 3.42 3.34 3.20 2.99 2.59 0.23 6.00 6.00 6.00 0.62 1.62 2.37 2.55 6.00 6.00 6.00 6.00 6.00 6.00 6.00 6.00 6.00 6.00 6.00 6.00 6.00 6.00 6.00 6.00 6.00 6.00 6.00 6.00 6.00 6.00 6.00 6.00 6.00 6.00 6.00 6.00 6.00 6.00 6.00 6.00 6.00 6.00 6.00 6.00 6.00 6.00 6.00 6.00 1.33 6.00 6.00 6.00 6.00 6.00 6.00 6.00 6.00 6.00 6.00 6.00 6.00 6.00 6.00 6.00 6.00 6.00 6.00 6.00 6.00 6.00 6.00 6.00 6.00 6.00 6.00 6.00 6.00 6.00 6.00 6.00 6.00 6.00 6.00 6.00 6.00 6.00 6.00 6.00 6.00 6.00 6.00 6.00 6.00 6.00 6.00 6.00 6.00 6.00 6.00 6.00 6.00 6.00 6.00 6.00 6.00 6.00 6.00 6.00 6.00 6.00 6.00 6.00 6.00 6.00 6.00 6.00 6.00 6.00 6.00 6.00 6.00 6.00 6.00 6.00 6.00 6.00 6.00 6.00 6.00 6.00 6.00 6.00 6.00 6.00 6.00 2.76 3.17 3.58 3.74 3.82 3.88 3.93 3.97 4.01 4.04 4.07 4.10 4.13 4.15 4.17 4.19 4.21 4.23 4.24 4.26 4.28 4.29 4.30 4.32 4.33 4.34 4.35 4.37 4.38 4.39 4.40 4.41 4.42 4.43 4.44 4.45 4.45
4.55 4.54 4.53 4.52 4.51 4.50 4.49 4.48 4.46 4.45 4.43 4.42 4.40 4.38 4.36 4.34 4.32 4.30 4.28 4.26 4.24 4.22 4.21 4.19 4.18 4.16 4.15 4.14 4.12 4.11 4.09 4.07 4.04 4.01 3.96 3.95 3.97 3.98 3.99 3.99 3.99 3.99 3.99 3.98 3.97 3.96 3.96 3.95 3.94 3.94 3.93 3.92 3.91 3.89 3.87 3.85 3.82 3.80 3.77 3.74 3.70 3.65 3.59 3.52 3.40 2.94 2.53 2.39 1.52 2.61 2.19 2.09 2.48 2.76 2.80 2.77 2.04 6.00 6.00 6.00 6.00 6.00 6.00 6.00 6.00 6.00 6.00 6.00 6.00 6.00 6.00 6.00 6.00 6.00 6.00 6.00 6.00 6.00 6.00 6.00 6.00 6.00 6.00 6.00 6.00 6.00 6.00 6.00 6.00 6.00 6.00 6.00 6.00 6.00 6.00 6.00 1.71 6.00 6.00 6.00 6.00 6.00 6.00 6.00 6.00 6.00 6.00 6.00 6.00 6.00 6.00 6.00 6.00 6.00 6.00 6.00 6.00 6.00 6.00 6.00 6.00 6.00 6.00 6.00 6.00 6.00 6.00 6.00 6.00 6.00 6.00 6.00 6.00 6.00 6.00 6.00 6.00 6.00 6.00 6.00 6.00 6.00 6.00 6.00 6.00 6.00 6.00 6.00 6.00 6.00 6.00 6.00 6.00 6.00 6.00 6.00 6.00 6.00 6.00 6.00 6.00 6.00 6.00 6.00 6.00 6.00 6.00 6.00 6.00 6.00 6.00 6.00 6.00 6.00 6.00 6.00 6.00 6.00 6.00 6.00 6.00 6.00 6.00 6.00 0.52 2.80 3.64 3.76 3.85 3.91 3.96 4.00 4.04 4.07 4.10 4.12 4.15 4.17 4.19 4.21 4.23 4.24 4.26 4.28 4.29 4.30 4.32 4.33 4.34 4.35 4.37 4.38 4.39 4.40 4.41 4.42 4.43 4.44 4.45 4.45
4.56 4.55 4.54 4.53 4.52 4.51 4.49 4.48 4.47 4.46 4.44 4.43 4.41 4.39 4.38 4.36 4.34 4.32 4.31 4.29 4.27 4.26 4.24 4.23 4.21 4.20 4.19 4.17 4.16 4.15 4.13 4.11 4.09 4.08 4.06 4.05 4.04 4.04 4.04 4.04 4.04 4.04 4.03 4.02 4.02 4.01 4.00 3.99 3.99 3.98 3.97 3.96 3.95 3.93 3.92 3.90 3.87 3.85 3.82 3.79 3.75 3.70 3.63 3.55 3.43 3.20 2.49 3.07 3.15 3.15 2.80 2.86 3.07 3.03 3.07 2.70 1.66 6.00 6.00 6.00 6.00 6.00 6.00 6.00 6.00 6.00 6.00 6.00 6.00 6.00 6.00 6.00 6.00 6.00 6.00 6.00 6.00 6.00 6.00 6.00 6.00 6.00 6.00 6.00 6.00 6.00 6.00 6.00 6.00 6.00 6.00 6.00 6.00 6.00 6.00 6.00 2.00 6.00 6.00 6.00 6.00 6.00 6.00 6.00 6.00 6.00 6.00 6.00 6.00 6.00 6.00 6.00 6.00 6.00 6.00 6.00 6.00 6.00 6.00 6.00 6.00 6.00 6.00 6.00 6.00 6.00 6.00 6.00 6.00 6.00 6.00 6.00 6.00 6.00 6.00 6.00 6.00 6.00 6.00 6.00 6.00 6.00 6.00 6.00 6.00 6.00 6.00 6.00 6.00 6.00 6.00 6.00 6.00 6.00 6.00 6.00 6.00 6.00 6.00 6.00 6.00 6.00 6.00 6.00 6.00 6.00 6.00 6.00 6.00 6.00 6.00 6.00 6.00 6.00 6.00 6.00 6.00 6.00 6.00 6.00 6.00 6.00 6.00 6.00 1.92 2.18 1.91 3.63 3.80 3.88 3.94 3.98 4.02 4.06 4.09 4.12 4.14 4.16 4.19 4.21 4.22 4.24 4.26 4.27 4.29 4.30 4.32 4.33 4.34 4.35 4.37 4.38 4.39 4.40 4.41 4.42 4.43 4.44 4.45 4.45
4.56 4.55 4.54 4.53 4.52 4.51 4.50 4.49 4.48 4.46 4.45 4.44 4.42 4.41 4.39 4.38 4.36 4.34 4.33 4.31 4.30 4.28 4.27 4.26 4.24 4.23 4.22 4.21 4.19 4.18 4.17 4.15 4.14 4.13 4.11 4.10 4.10 4.09 4.09 4.08 4.08 4.07 4.07 4.06 4.05 4.05 4.04 4.03 4.02 4.01 4.00 3.99 3.98 3.97 3.95 3.93 3.91 3.89 3.86 3.82 3.78 3.72 3.64 3.52 3.30 2.99 3.29 3.33 3.39 3.32 2.44 3.23 3.29 3.27 3.19 3.05 2.73 6.00 6.00 6.00 6.00 6.00 6.00 6.00 6.00 6.00 6.00 6.00 6.00 6.00 6.00 6.00 6.00 6.00 6.00 6.00 6.00 6.00 6.00 6.00 6.00 6.00 6.00 6.00 6.00 6.00 6.00 6.00 6.00 6.00 6.00 6.00 6.00 6.00 6.00 2.30 2.23 6.00 6.00 6.00 6.00 6.00 6.00 6.00 6.00 6.00 6.00 6.00 6.00 6.00 6.00 6.00 6.00 6.00 6.00 6.00 6.00 6.00 6.00 6.00 6.00 6.00 6.00 6.00 6.00 6.00 6.00 6.00 6.00 6.00 6.00 6.00 6.00 6.00 6.00 6.00 6.00 6.00 6.00 6.00 6.00 6.00 6.00 6.00 6.00 6.00 6.00 6.00 6.00 6.00 6.00 6.00 6.00 6.00 6.00 6.00 6.00 6.00 6.00 6.00 6.00 6.00 6.00 6.00 6.00 6.00 6.00 6.00 6.00 6.00 6.00 6.00 6.00 6.00 6.00 6.00 6.00 6.00 6.00 6.00 6.00 6.00 6.00 6.00 6.00 6.00 2.99 0.89 3.73 3.84 3.91 3.97 4.01 4.05 4.08 4.11 4.14 4.16 4.18 4.20 4.22 4.24 4.26 4.27 4.29 4.30 4.32 4.33 4.34 4.35 4.37 4.38 4.39 4.40 4.41 4.42 4.43 4.44 4.45 4.45
4.56 4.55 4.54 4.53 4.52 4.51 4.50 4.49 4.48 4.47 4.46 4.44 4.43 4.42 4.40 4.39 4.38 4.36 4.35 4.33 4.32 4.31 4.29 4.28 4.27 4.26 4.25 4.23 4.22 4.21 4.20 4.19 4.17 4.16 4.15 4.14 4.14 4.13 4.12 4.12 4.11 4.11 4.10 4.09 4.09 4.08 4.07 4.06 4.05 4.04 4.03 4.02 4.01 4.00 3.98 3.97 3.95 3.92 3.89 3.86 3.81 3.74 3.60 3.39 1.77 3.36 3.48 3.52 3.52 3.47 3.20 3.41 3.41 3.37 3.23 1.37 2.07 1.78 1.56 6.00 6.00 6.00 6.00 6.00 6.00 6.00 6.00 6.00 6.00 6.00 6.00 6.00 6.00 6.00 6.00 6.00 6.00 6.00 6.00 6.00 6.00 6.00 6.00 6.00 6.00 6.00 6.00 6.00 6.00 6.00 6.00 6.00 6.00 6.00 0.41 2.53 2.43 6.00 6.00 6.00 6.00 6.00 6.00 6.00 6.00 6.00 6.00 6.00 6.00 6.00 6.00 6.00 6.00 6.00 6.00 6.00 6.00 6.00 6.00 6.00 6.00 6.00 6.00 6.00 6.00 6.00 6.00 6.00 6.00 6.00 6.00 6.00 6.00 6.00 6.00 6.00 6.00 6.00 6.00 6.00 6.00 6.00 6.00 6.00 6.00 6.00 6.00 6.00 6.00 6.00 6.00 6.00 6.00 6.00 6.00 6.00 6.00 6.00 6.00 6.00 6.00 6.00 6.00 6.00 6.00 6.00 6.00 6.00 6.00 6.00 6.00 6.00 6.00 6.00 6.00 6.00 6.00 6.00 6.00 6.00 6.00 6.00 6.00 6.00 6.00 6.00 3.15 3.41 3.60 3.76 3.87 3.94 3.99 4.04 4.07 4.10 4.13 4.16 4.18 4.20 4.22 4.24 4.26 4.27 4.29 4.30 4.32 4.33 4.34 4.35 4.37 4.38 4.39 4.40 4.41 4.42 4.43 4.44 4.45 4.45
4.56 4.55 4.55 4.54 4.53 4.52 4.51 4.50 4.49 4.48 4.47 4.45 4.44 4.43 4.42 4.40 4.39 4.38 4.36 4.35 4.34 4.33 4.32 4.30 4.29 4.28 4.27 4.26 4.25 4.24 4.23 4.22 4.21 4.20 4.19 4.18 4.17 4.16 4.15 4.15 4.14 4.13 4.13 4.12 4.11 4.11 4.10 4.09 4.08 4.07 4.06 4.05 4.04 4.03 4.01 3.99 3.98 3.95 3.92 3.89 3.84 3.76 3.59 3.20 3.33 3.52 3.59 3.62 3.61 3.59 3.56 3.54 3.50 3.45 3.35 3.23 3.08 2.83 2.38 6.00 6.00 6.00 6.00 6.00 6.00 6.00 6.00 6.00 6.00 6.00 6.00 6.00 6.00 6.00 6.00 6.00 6.00 6.00 6.00 6.00 6.00 6.00 6.00 6.00 6.00 6.00 6.00 6.00 6.00 6.00 6.00 6.00 6.00 6.00 1.42 2.70 2.54 6.00 6.00 6.00 6.00 6.00 6.00 6.00 6.00 6.00 6.00 6.00 6.00 6.00 6.00 6.00 6.00 6.00 6.00 6.00 6.00 6.00 6.00 6.00 6.00 6.00 6.00 6.00 6.00 6.00 6.00 6.00 6.00 6.00 6.00 6.00 6.00 6.00 6.00 6.00 6.00 6.00 6.00 6.00 6.00 6.00 6.00 6.00 6.00 6.00 6.00 6.00 6.00 6.00 6.00 6.00 6.00 6.00 6.00 6.00 6.00 6.00 6.00 6.00 6.00 6.00 6.00 6.00 6.00 6.00 6.00 6.00 6.00 6.00 6.00 6.00 6.00 6.00 6.00 6.00 6.00 6.00 6.00 6.00 6.00 6.00 6.00 6.00 6.00 6.00 6.00 6.00 0.13 2.80 3.81 3.91 3.98 4.02 4.06 4.10 4.13 4.15 4.18 4.20 4.22 4.24 4.25 4.27 4.29 4.30 4.32 4.33 4.34 4.35 4.37 4.38 4.39 4.40 4.41 4.42 4.43 4.44 4.45 4.46
4.57 4.56 4.55 4.54 4.53 4.52 4.51 4.50 4.49 4.48 4.47 4.46 4.45 4.44 4.43 4.42 4.40 4.39 4.38 4.37 4.36 4.34 4.33 4.32 4.31 4.30 4.29 4.28 4.27 4.26 4.25 4.24 4.23 4.22 4.21 4.20 4.20 4.19 4.18 4.17 4.17 4.16 4.15 4.15 4.14 4.13 4.12 4.11 4.11 4.10 4.09 4.08 4.06 4.05 4.04 4.02 4.00 3.98 3.95 3.92 3.87 3.78 3.54 3.28 3.02 3.65 3.69 3.69 3.69 3.67 3.64 3.61 3.56 3.50 3.41 3.30 2.89 2.76 1.37 6.00 6.00 6.00 6.00 6.00 6.00 6.00 6.00 6.00 6.00 6.00 6.00 6.00 6.00 6.00 6.00 6.00 6.00 6.00 6.00 6.00 6.00 6.00 6.00 6.00 6.00 6.00 6.00 6.00 6.00 6.00 6.00 6.00 6.00 2.10 2.81 2.84 2.69 6.00 6.00 6.00 6.00 6.00 6.00 6.00 6.00 6.00 6.00 6.00 6.00 6.00 6.00 6.00 6.00 6.00 6.00 6.00 6.00 6.00 6.00 6.00 6.00 6.00 6.00 6.00 6.00 6.00 6.00 6.00 6.00 6.00 6.00 6.00 6.00 6.00 6.00 6.00 6.00 6.00 6.00 6.00 6.00 6.00 6.00 6.00 6.00 6.00 6.00 6.00 6.00 6.00 6.00 6.00 6.00 6.00 6.00 6.00 6.00 6.00 6.00 6.00 6.00 6.00 6.00 6.00 6.00 6.00 6.00 6.00 6.00 6.00 6.00 6.00 6.00 6.00 6.00 6.00 6.00 6.00 6.00 6.00 6.00 6.00 6.00 6.00 6.00 6.00 6.00 1.86 2.35 2.52 3.75 3.88 3.96 4.01 4.05 4.09 4.12 4.15 4.17 4.19 4.22 4.24 4.25 4.27 4.29 4.30 4.32 4.33 4.34 4.35 4.37 4.38 4.39 4.40 4.41 4.42 4.43 4.44 4.45 4.46
4.57 4.56 4.55 4.54 4.54 4.53 4.52 4.51 4.50 4.49 4.48 4.47 4.46 4.45 4.44 4.43 4.42 4.40 4.39 4.38 4.37 4.36 4.35 4.34 4.33 4.32 4.31 4.30 4.29 4.28 4.27 4.26 4.25 4.24 4.24 4.23 4.22 4.21 4.20 4.20 4.19 4.18 4.18 4.17 4.16 4.15 4.15 4.14 4.13 4.12 4.11 4.10 4.09 4.08 4.06 4.05 4.03 4.01 3.98 3.95 3.91 3.84 3.71 3.74 3.75 3.76 3.77 3.76 3.75 3.73 3.70 3.66 3.60 3.51 3.38 3.23 2.89 2.22 0.94 0.86 1.93 6.00 6.00 6.00 6.00 6.00 6.00 6.00 6.00 6.00 6.00 6.00 6.00 6.00 6.00 6.00 6.00 6.00 6.00 6.00 6.00 6.00 6.00 6.00 6.00 6.00 6.00 6.00 6.00 6.00 6.00 6.00 6.00 1.83 2.96 2.95 2.79 6.00 6.00 6.00 6.00 6.00 6.00 6.00 6.00 6.00 6.00 6.00 6.00 6.00 6.00 6.00 6.00 6.00 6.00 6.00 6.00 6.00 6.00 6.00 6.00 6.00 6.00 6.00 6.00 6.00 6.00 6.00 6.00 6.00 6.00 6.00 6.00 6.00 6.00 6.00 6.00 6.00 6.00 6.00 6.00 6.00 6.00 6.00 6.00 6.00 6.00 6.00 6.00 6.00 6.00 6.00 6.00 6.00 6.00 6.00 6.00 6.00 6.00 6.00 6.00 6.00 6.00 6.00 6.00 6.00 6.00 6.00 6.00 6.00 6.00 6.00 6.00 6.00 6.00 6.00 6.00 6.00 6.00 6.00 6.00 6.00 6.00 6.00 6.00 6.00 0.56 3.05 3.35 3.46 3.73 3.86 3.93 3.99 4.04 4.08 4.11 4.14 4.17 4.19 4.21 4.23 4.25 4.27 4.29 4.30 4.32 4.33 4.34 4.35 4.37 4.38 4.39 4.40 4.41 4.42 4.43 4.44 4.45 4.46
4.57 4.56 4.56 4.55 4.54 4.53 4.52 4.51 4.51 4.50 4.49 4.48 4.47 4.46 4.45 4.44 4.43 4.42 4.41 4.40 4.39 4.38 4.37 4.36 4.35 4.34 4.33 4.32 4.31 4.30 4.29 4.28 4.27 4.27 4.26 4.25 4.24 4.23 4.23 4.22 4.21 4.20 4.20 4.19 4.18 4.17 4.17 4.16 4.15 4.14 4.13 4.12 4.11 4.10 4.08 4.07 4.05 4.04 4.01 3.99 3.96 3.92 3.89 3.86 3.85 3.84 3.83 3.82 3.80 3.77 3.74 3.70 3.63 3.47 2.91 2.95 3.10 2.78 1.82 2.48 2.67 6.00 6.00 6.00 6.00 6.00 6.00 6.00 6.00 6.00 6.00 6.00 6.00 6.00 6.00 6.00 6.00 6.00 6.00 6.00 6.00 6.00 6.00 6.00 6.00 6.00 6.00 6.00 6.00 6.00 6.00 1.54 2.17 3.03 3.07 3.05 2.92 1.43 6.00 6.00 6.00 6.00 6.00 6.00 6.00 6.00 6.00 6.00 6.00 6.00 6.00 6.00 6.00 6.00 6.00 6.00 6.00 6.00 6.00 6.00 6.00 6.00 6.00 6.00 6.00 6.00 6.00 6.00 6.00 6.00 6.00 6.00 6.00 6.00 6.00 6.00 6.00 6.00 6.00 6.00 6.00 6.00 6.00 6.00 6.00 6.00 6.00 6.00 6.00 6.00 6.00 6.00 6.00 6.00 6.00 6.00 6.00 6.00 6.00 6.00 6.00 6.00 6.00 6.00 6.00 6.00 6.00 6.00 6.00 6.00 6.00 6.00 6.00 6.00 6.00 6.00 6.00 6.00 6.00 6.00 6.00 6.00 6.00 6.00 6.00 6.00 6.00 0.64 3.39 3.55 3.69 3.81 3.90 3.97 4.03 4.07 4.11 4.14 4.16 4.19 4.21 4.23 4.25 4.27 4.28 4.30 4.32 4.33 4.34 4.35 4.37 4.38 4.39 4.40 4.41 4.42 4.43 4.44 4.45 4.46
4.57 4.57 4.56 4.55 4.54 4.54 4.53 4.52 4.51 4.50 4.49 4.48 4.48 4.47 4.46 4.45 4.44 4.43 4.42 4.41 4.40 4.39 4.38 4.37 4.36 4.35 4.34 4.33 4.33 4.32 4.31 4.30 4.29 4.28 4.28 4.27 4.26 4.25 4.25 4.24 4.23 4.22 4.22 4.21 4.20 4.19 4.19 4.18 4.17 4.16 4.15 4.14 4.13 4.12 4.11 4.09 4.08 4.06 4.04 4.02 4.00 3.97 3.95 3.93 3.91 3.90 3.88 3.86 3.84 3.81 3.78 3.74 3.66 2.90 2.86 3.39 3.40 3.30 3.18 3.14 2.38 2.43 2.36 1.46 6.00 6.00 6.00 6.00 6.00 6.00 6.00 6.00 6.00 6.00 6.00 6.00 6.00 6.00 6.00 6.00 6.00 6.00 6.00 6.00 6.00 6.00 6.00 6.00 6.00 6.00 2.36 1.62 3.09 3.16 3.16 3.13 3.03 0.93 6.00 6.00 6.00 6.00 6.00 6.00 6.00 6.00 6.00 6.00 6.00 6.00 6.00 6.00 6.00 6.00 6.00 6.00 6.00 6.00 6.00 6.00 6.00 6.00 6.00 6.00 6.00 6.00 6.00 6.00 6.00 6.00 6.00 6.00 6.00 6.00 6.00 6.00 6.00 6.00 6.00 6.00 6.00 6.00 6.00 6.00 6.00 6.00 6.00 6.00 6.00 6.00 6.00 6.00 6.00 6.00 6.00 6.00 6.00 6.00 6.00 6.00 6.00 6.00 6.00 6.00 6.00 6.00 6.00 6.00 6.00 6.00 6.00 6.00 6.00 6.00 6.00 6.00 6.00 6.00 6.00 6.00 6.00 6.00 6.00 6.00 6.00 6.00 6.00 2.76 0.95 3.22 3.18 3.64 3.84 3.94 4.01 4.06 4.10 4.13 4.16 4.19 4.21 4.23 4.25 4.27 4.28 4.30 4.31 4.33 4.34 4.36 4.37 4.38 4.39 4.40 4.41 4.42 4.43 4.44 4.45 4.46
4.58 4.57 4.56 4.56 4.55 4.54 4.53 4.52 4.52 4.51 4.50 4.49 4.48 4.47 4.46 4.46 4.45 4.44 4.43 4.42 4.41 4.40 4.39 4.38 4.38 4.37 4.36 4.35 4.34 4.33 4.32 4.32 4.31 4.30 4.29 4.29 4.28 4.27 4.26 4.26 4.25 4.24 4.23 4.23 4.22 4.21 4.20 4.19 4.19 4.18 4.17 4.16 4.15 4.14 4.13 4.11 4.10 4.08 4.07 4.05 4.03 4.01 3.99 3.97 3.95 3.94 3.92 3.90 3.88 3.85 3.82 3.78 3.72 3.65 3.60 3.56 3.52 3.46 3.38 3.28 3.15 2.99 2.75 2.38 1.77 0.39 6.00 6.00 6.00 6.00 6.00 6.00 6.00 6.00 6.00 6.00 6.00 6.00 6.00 6.00 6.00 6.00 6.00 6.00 6.00 6.00 6.00 6.00 2.05 1.81 2.82 3.08 3.22 3.25 3.25 3.21 3.08 6.00 6.00 6.00 6.00 6.00 6.00 6.00 6.00 6.00 6.00 6.00 6.00 6.00 6.00 6.00 6.00 6.00 6.00 6.00 6.00 6.00 6.00 6.00 6.00 6.00 6.00 6.00 6.00 6.00 6.00 6.00 6.00 6.00 6.00 6.00 6.00 6.00 6.00 6.00 6.00 6.00 6.00 6.00 6.00 6.00 6.00 6.00 6.00 6.00 6.00 6.00 6.00 6.00 6.00 6.00 6.00 6.00 6.00 6.00 6.00 6.00 6.00 6.00 6.00 6.00 6.00 6.00 6.00 6.00 6.00 6.00 6.00 6.00 6.00 6.00 6.00 6.00 6.00 6.00 6.00 6.00 6.00 6.00 6.00 6.00 6.00 6.00 6.00 6.00 6.00 6.00 6.00 1.54 2.02 1.45 3.72 3.91 3.99 4.05 4.09 4.13 4.16 4.18 4.21 4.23 4.25 4.27 4.28 4.30 4.31 4.33 4.34 4.36 4.37 4.38 4.39 4.40 4.41 4.42 4.43 4.44 4.45 4.46
4.58 4.57 4.57 4.56 4.55 4.55 4.54 4.53 4.52 4.51 4.51 4.50 4.49 4.48 4.47 4.46 4.46 4.45 4.44 4.43 4.42 4.41 4.40 4.40 4.39 4.38 4.37 4.36 4.36 4.35 4.34 4.33 4.32 4.32 4.31 4.30 4.29 4.29 4.28 4.27 4.27 4.26 4.25 4.24 4.24 4.23 4.22 4.21 4.20 4.19 4.19 4.18 4.17 4.16 4.14 4.13 4.12 4.11 4.09 4.07 4.06 4.04 4.02 4.01 3.99 3.97 3.95 3.93 3.91 3.88 3.85 3.82 3.78 3.73 3.69 3.64 3.59 3.52 3.43 3.29 3.15 2.96 1.19 0.65 6.00 6.00 6.00 6.00 6.00 6.00 6.00 6.00 6.00 6.00 6.00 6.00 6.00 6.00 6.00 6.00 6.00 6.00 6.00 6.00 6.00 6.00 6.00 1.33 2.72 1.68 3.14 3.28 3.32 3.33 3.32 3.28 3.19 2.97 2.47 6.00 6.00 6.00 6.00 6.00 6.00 6.00 6.00 6.00 6.00 6.00 6.00 6.00 6.00 6.00 6.00 6.00 6.00 6.00 6.00 6.00 6.00 6.00 6.00 6.00 6.00 6.00 6.00 6.00 6.00 6.00 6.00 6.00 6.00 6.00 6.00 6.00 6.00 6.00 6.00 6.00 6.00 6.00 6.00 6.00 6.00 6.00 6.00 6.00 6.00 6.00 6.00 6.00 6.00 6.00 6.00 6.00 6.00 6.00 6.00 6.00 6.00 6.00 6.00 6.00 6.00 6.00 6.00 6.00 6.00 6.00 6.00 6.00 6.00 6.00 6.00 6.00 6.00 6.00 6.00 6.00 6.00 6.00 6.00 6.00 6.00 6.00 6.00 6.00 6.00 2.66 2.89 3.12 3.68 3.89 3.98 4.04 4.09 4.12 4.15 4.18 4.21 4.23 4.25 4.27 4.28 4.30 4.31 4.33 4.34 4.36 4.37 4.38 4.39 4.40 4.41 4.42 4.43 4.44 4.45 4.46
4.58 4.58 4.57 4.56 4.56 4.55 4.54 4.54 4.53 4.52 4.51 4.50 4.50 4.49 4.48 4.47 4.46 4.46 4.45 4.44 4.43 4.42 4.42 4.41 4.40 4.39 4.38 4.38 4.37 4.36 4.35 4.35 4.34 4.33 4.32 4.32 4.31 4.30 4.29 4.29 4.28 4.27 4.27 4.26 4.25 4.24 4.24 4.23 4.22 4.21 4.20 4.19 4.18 4.17 4.16 4.15 4.14 4.12 4.11 4.10 4.08 4.07 4.05 4.03 4.01 4.00 3.98 3.95 3.93 3.91 3.88 3.85 3.81 3.77 3.73 3.68 3.63 3.55 3.37 1.79 2.81 2.34 1.27 6.00 6.00 6.00 6.00 6.00 2.22 0.87 6.00 6.00 6.00 6.00 6.00 6.00 6.00 6.00 6.00 6.00 6.00 6.00 6.00 6.00 2.24 2.61 2.50 1.66 3.10 3.22 3.31 3.38 3.40 3.40 3.38 3.34 3.23 1.72 6.00 6.00 6.00 6.00 6.00 6.00 6.00 6.00 6.00 6.00 6.00 6.00 6.00 6.00 6.00 6.00 6.00 6.00 6.00 6.00 6.00 6.00 6.00 6.00 6.00 6.00 6.00 6.00 6.00 6.00 6.00 6.00 6.00 6.00 6.00 6.00 6.00 6.00 6.00 6.00 6.00 6.00 6.00 6.00 6.00 6.00 6.00 6.00 6.00 6.00 6.00 6.00 6.00 6.00 6.00 6.00 6.00 6.00 6.00 6.00 6.00 6.00 6.00 6.00 6.00 6.00 6.00 6.00 6.00 6.00 6.00 6.00 6.00 6.00 6.00 6.00 6.00 6.00 6.00 6.00 6.00 6.00 6.00 6.00 6.00 6.00 6.00 6.00 6.00 2.41 2.51 3.24 3.36 3.22 3.60 3.88 3.98 4.04 4.08 4.12 4.15 4.18 4.20 4.23 4.25 4.27 4.28 4.30 4.32 4.33 4.34 4.36 4.37 4.38 4.39 4.40 4.41 4.42 4.43 4.44 4.45 4.46
4.59 4.58 4.58 4.57 4.56 4.55 4.55 4.54 4.53 4.53 4.52 4.51 4.50 4.50 4.49 4.48 4.47 4.46 4.46 4.45 4.44 4.43 4.43 4.42 4.41 4.40 4.40 4.39 4.38 4.37 4.37 4.36 4.35 4.34 4.34 4.33 4.32 4.32 4.31 4.30 4.29 4.29 4.28 4.27 4.27 4.26 4.25 4.24 4.23 4.23 4.22 4.21 4.20 4.19 4.18 4.17 4.16 4.14 4.13 4.12 4.10 4.09 4.07 4.05 4.04 4.02 4.00 3.98 3.95 3.93 3.90 3.87 3.83 3.79 3.75 3.70 3.65 3.58 3.47 3.34 3.21 2.73 2.43 6.00 6.00 6.00 6.00 6.00 2.68 2.42 2.59 1.20 6.00 6.00 1.67 6.00 6.00 6.00 1.94 1.94 0.47 2.23 6.00 6.00 2.40 2.94 2.08 3.03 3.32 3.40 3.44 3.46 3.47 3.46 3.44 3.39 3.32 3.16 1.06 2.43 6.00 6.00 6.00 6.00 6.00 6.00 6.00 6.00 6.00 6.00 6.00 6.00 6.00 6.00 6.00 6.00 6.00 6.00 6.00 6.00 6.00 6.00 6.00 6.00 6.00 6.00 6.00 6.00 6.00 6.00 6.00 6.00 6.00 6.00 6.00 6.00 6.00 6.00 6.00 6.00 6.00 6.00 6.00 6.00 6.00 6.00 6.00 6.00 6.00 6.00 6.00 6.00 6.00 6.00 6.00 6.00 6.00 6.00 6.00 6.00 6.00 6.00 6.00 6.00 6.00 6.00 6.00 6.00 6.00 6.00 6.00 6.00 6.00 6.00 6.00 6.00 6.00 6.00 6.00 6.00 6.00 6.00 6.00 6.00 6.00 6.00 6.00 2.96 3.31 3.47 3.55 3.58 3.77 3.90 3.98 4.04 4.08 4.12 4.15 4.18 4.20 4.23 4.25 4.27 4.28 4.30 4.32 4.33 4.34 4.36 4.37 4.38 4.39 4.40 4.41 4.42 4.43 4.44 4.45 4.46
4.59 4.59 4.58 4.57 4.57 4.56 4.55 4.55 4.54 4.53 4.52 4.52 4.51 4.50 4.50 4.49 4.48 4.47 4.47 4.46 4.45 4.44 4.44 4.43 4.42 4.41 4.41 4.40 4.39 4.38 4.38 4.37 4.36 4.36 4.35 4.34 4.34 4.33 4.32 4.31 4.31 4.30 4.29 4.29 4.28 4.27 4.26 4.26 4.25 4.24 4.23 4.22 4.21 4.20 4.19 4.18 4.17 4.16 4.15 4.13 4.12 4.11 4.09 4.07 4.06 4.04 4.02 4.00 3.97 3.95 3.92 3.88 3.85 3.81 3.76 3.71 3.66 3.59 3.51 3.42 3.29 3.11 2.57 1.44 6.00 1.60 0.92 2.49 2.81 3.05 2.74 2.56 1.55 2.80 2.36 6.00 6.00 6.00 6.00 6.00 2.91 2.75 2.56 1.38 1.75 3.24 1.87 2.54 3.42 3.49 3.52 3.53 3.52 3.51 3.49 3.44 3.37 3.23 2.95 0.62 6.00 6.00 6.00 6.00 6.00 6.00 6.00 6.00 6.00 6.00 6.00 6.00 6.00 6.00 6.00 6.00 6.00 6.00 6.00 6.00 6.00 6.00 6.00 6.00 6.00 6.00 6.00 6.00 6.00 6.00 6.00 6.00 6.00 6.00 6.00 6.00 6.00 6.00 6.00 6.00 6.00 6.00 6.00 6.00 6.00 6.00 6.00 6.00 6.00 6.00 6.00 6.00 6.00 6.00 6.00 6.00 6.00 6.00 6.00 6.00 6.00 6.00 6.00 6.00 6.00 6.00 6.00 6.00 6.00 6.00 6.00 6.00 6.00 6.00 6.00 6.00 6.00 6.00 6.00 6.00 6.00 6.00 6.00 6.00 6.00 6.00 6.00 1.64 3.27 3.54 3.65 3.74 3.83 3.91 3.98 4.03 4.08 4.12 4.15 4.18 4.20 4.23 4.25 4.27 4.28 4.30 4.32 4.33 4.34 4.36 4.37 4.38 4.39 4.40 4.42 4.43 4.43 4.44 4.45 4.46
4.59 4.59 4.58 4.58 4.57 4.56 4.56 4.55 4.54 4.54 4.53 4.52 4.52 4.51 4.50 4.50 4.49 4.48 4.47 4.47 4.46 4.45 4.44 4.44 4.43 4.42 4.42 4.41 4.40 4.40 4.39 4.38 4.38 4.37 4.36 4.35 4.35 4.34 4.33 4.33 4.32 4.31 4.31 4.30 4.29 4.29 4.28 4.27 4.26 4.25 4.25 4.24 4.23 4.22 4.21 4.20 4.19 4.18 4.16 4.15 4.14 4.12 4.11 4.09 4.07 4.06 4.04 4.01 3.99 3.96 3.93 3.90 3.86 3.81 3.76 3.71 3.64 3.57 3.50 3.38 3.06 3.02 2.76 1.57 2.35 2.71 2.16 2.92 3.21 3.25 2.80 3.19 3.16 1.25 2.59 2.09 6.00 1.92 2.37 3.13 3.14 2.96 2.68 2.71 3.10 3.43 3.48 3.50 3.54 3.57 3.58 3.58 3.57 3.56 3.53 3.49 3.40 2.98 0.48 6.00 6.00 0.53 6.00 6.00 6.00 6.00 6.00 6.00 6.00 6.00 6.00 6.00 6.00 6.00 6.00 6.00 6.00 6.00 6.00 6.00 6.00 6.00 6.00 6.00 6.00 6.00 6.00 6.00 6.00 6.00 6.00 6.00 6.00 6.00 6.00 6.00 6.00 6.00 6.00 6.00 6.00 6.00 6.00 6.00 6.00 6.00 6.00 6.00 6.00 6.00 6.00 6.00 6.00 6.00 6.00 6.00 6.00 6.00 6.00 6.00 6.00 6.00 6.00 6.00 6.00 6.00 6.00 6.00 6.00 6.00 6.00 6.00 6.00 6.00 6.00 6.00 6.00 6.00 6.00 6.00 6.00 6.00 6.00 6.00 6.00 6.00 6.00 3.10 3.36 3.55 3.66 3.75 3.84 3.91 3.97 4.03 4.07 4.11 4.15 4.18 4.20 4.23 4.25 4.27 4.28 4.30 4.32 4.33 4.35 4.36 4.37 4.38 4.39 4.41 4.42 4.43 4.44 4.45 4.45 4.46
4.60 4.59 4.59 4.58 4.57 4.57 4.56 4.56 4.55 4.54 4.54 4.53 4.52 4.52 4.51 4.50 4.50 4.49 4.48 4.47 4.47 4.46 4.45 4.45 4.44 4.43 4.43 4.42 4.41 4.41 4.40 4.39 4.39 4.38 4.37 4.37 4.36 4.35 4.35 4.34 4.33 4.33 4.32 4.31 4.30 4.30 4.29 4.28 4.27 4.27 4.26 4.25 4.24 4.23 4.22 4.21 4.20 4.19 4.18 4.17 4.15 4.14 4.12 4.11 4.09 4.07 4.05 4.03 4.00 3.97 3.94 3.90 3.86 3.81 3.75 3.67 3.59 3.50 3.42 3.31 3.08 1.40 2.45 2.32 2.80 3.13 2.99 3.14 3.38 3.42 3.40 3.37 3.30 3.19 3.03 2.66 2.01 1.25 3.11 3.32 3.30 2.30 2.99 3.29 3.47 3.55 3.58 3.61 3.62 3.63 3.63 3.63 3.62 3.60 3.58 3.54 3.47 3.35 3.01 2.05 2.59 1.01 6.00 6.00 6.00 6.00 6.00 6.00 6.00 6.00 6.00 6.00 6.00 6.00 6.00 6.00 6.00 6.00 6.00 6.00 6.00 6.00 6.00 6.00 6.00 6.00 6.00 6.00 6.00 6.00 6.00 6.00 6.00 6.00 6.00 6.00 6.00 6.00 6.00 6.00 6.00 6.00 6.00 6.00 6.00 6.00 6.00 6.00 6.00 6.00 6.00 6.00 6.00 6.00 6.00 6.00 6.00 6.00 6.00 6.00 6.00 6.00 6.00 6.00 6.00 6.00 6.00 6.00 6.00 6.00 6.00 6.00 6.00 6.00 6.00 6.00 6.00 6.00 6.00 6.00 6.00 6.00 6.00 6.00 6.00 6.00 2.68 3.01 3.18 3.38 3.59 3.71 3.80 3.89 3.96 4.02 4.07 4.11 4.14 4.17 4.20 4.23 4.25 4.27 4.29 4.30 4.32 4.33 4.35 4.36 4.37 4.38 4.40 4.41 4.42 4.43 4.44 4.45 4.46 4.46
4.60 4.60 4.59 4.58 4.58 4.57 4.57 4.56 4.55 4.55 4.54 4.53 4.53 4.52 4.52 4.51 4.50 4.50 4.49 4.48 4.48 4.47 4.46 4.46 4.45 4.44 4.44 4.43 4.42 4.42 4.41 4.40 4.40 4.39 4.38 4.38 4.37 4.36 4.36 4.35 4.34 4.34 4.33 4.32 4.32 4.31 4.30 4.29 4.29 4.28 4.27 4.26 4.25 4.25 4.24 4.23 4.22 4.20 4.19 4.18 4.17 4.15 4.14 4.12 4.11 4.09 4.07 4.04 4.02 3.99 3.95 3.91 3.86 3.79 3.70 3.51 3.41 2.81 2.11 2.97 2.24 2.99 3.21 3.13 2.07 3.32 3.44 3.41 3.52 3.53 3.51 3.45 3.35 3.20 3.03 1.90 2.93 2.11 3.38 3.48 3.48 2.79 3.06 2.29 3.56 3.63 3.66 3.67 3.68 3.68 3.68 3.67 3.66 3.64 3.62 3.58 3.53 3.45 3.32 3.08 2.93 0.24 6.00 6.00 6.00 6.00 6.00 6.00 6.00 6.00 6.00 6.00 6.00 6.00 6.00 6.00 6.00 6.00 6.00 6.00 6.00 6.00 6.00 6.00 6.00 6.00 6.00 6.00 6.00 6.00 6.00 6.00 6.00 6.00 6.00 6.00 6.00 6.00 6.00 6.00 6.00 6.00 6.00 6.00 6.00 6.00 6.00 6.00 6.00 6.00 6.00 6.00 6.00 6.00 6.00 6.00 6.00 6.00 6.00 6.00 6.00 6.00 6.00 6.00 6.00 6.00 6.00 6.00 6.00 6.00 6.00 6.00 6.00 6.00 6.00 6.00 6.00 6.00 6.00 6.00 6.00 6.00 6.00 6.00 6.00 1.33 6.00 6.00 1.11 2.58 3.33 2.82 3.68 3.83 3.93 4.00 4.06 4.10 4.14 4.17 4.20 4.23 4.25 4.27 4.29 4.30 4.32 4.33 4.35 4.36 4.37 4.39 4.40 4.41 4.42 4.43 4.44 4.45 4.46 4.47
4.61 4.60 4.59 4.59 4.58 4.58 4.57 4.56 4.56 4.55 4.55 4.54 4.53 4.53 4.52 4.51 4.51 4.50 4.50 4.49 4.48 4.48 4.47 4.46 4.46 4.45 4.44 4.44 4.43 4.43 4.42 4.41 4.41 4.40 4.39 4.39 4.38 4.37 4.37 4.36 4.35 4.35 4.34 4.33 4.33 4.32 4.31 4.31 4.30 4.29 4.28 4.28 4.27 4.26 4.25 4.24 4.23 4.22 4.21 4.20 4.18 4.17 4.15 4.14 4.12 4.10 4.08 4.06 4.03 4.00 3.96 3.91 3.84 3.76 3.65 3.45 2.86 3.19 3.38 3.38 3.33 3.43 3.49 3.38 3.20 3.51 3.60 3.62 3.63 3.62 3.59 3.51 3.30 2.17 2.15 3.07 3.37 3.39 3.55 3.60 3.62 3.61 3.55 3.58 3.66 3.70 3.72 3.72 3.73 3.73 3.72 3.71 3.70 3.68 3.65 3.62 3.57 3.48 3.35 3.13 2.80 0.11 6.00 6.00 6.00 6.00 6.00 6.00 6.00 6.00 6.00 6.00 6.00 6.00 6.00 6.00 6.00 6.00 6.00 6.00 6.00 6.00 6.00 6.00 6.00 6.00 6.00 6.00 6.00 6.00 6.00 6.00 6.00 6.00 6.00 6.00 6.00 6.00 6.00 6.00 6.00 6.00 6.00 6.00 6.00 6.00 6.00 6.00 6.00 6.00 6.00 6.00 6.00 6.00 6.00 6.00 6.00 6.00 6.00 6.00 6.00 6.00 6.00 6.00 6.00 6.00 6.00 6.00 6.00 6.00 6.00 6.00 6.00 6.00 6.00 6.00 6.00 6.00 6.00 6.00 6.00 6.00 6.00 6.00 6.00 6.00 6.00 6.00 6.00 1.26 2.79 2.14 2.85 3.60 3.88 3.99 4.05 4.10 4.14 4.17 4.20 4.23 4.25 4.27 4.29 4.31 4.32 4.34 4.35 4.36 4.38 4.39 4.40 4.41 4.42 4.43 4.44 4.45 4.46 4.47
4.61 4.60 4.60 4.59 4.59 4.58 4.58 4.57 4.56 4.56 4.55 4.55 4.54 4.53 4.53 4.52 4.51 4.51 4.50 4.50 4.49 4.48 4.48 4.47 4.47 4.46 4.45 4.45 4.44 4.43 4.43 4.42 4.42 4.41 4.40 4.40 4.39 4.38 4.38 4.37 4.37 4.36 4.35 4.35 4.34 4.33 4.33 4.32 4.31 4.30 4.30 4.29 4.28 4.27 4.26 4.25 4.24 4.23 4.22 4.21 4.20 4.18 4.17 4.15 4.14 4.12 4.10 4.07 4.04 4.01 3.97 3.91 3.81 3.61 3.49 3.25 2.54 3.40 3.54 3.59 3.61 3.64 3.65 3.61 3.21 3.65 3.70 3.72 3.71 3.70 3.66 3.57 3.28 2.79 3.27 3.44 3.55 3.62 3.67 3.70 3.71 3.72 3.72 3.73 3.75 3.76 3.77 3.77 3.77 3.77 3.76 3.75 3.73 3.71 3.69 3.65 3.59 3.49 2.04 6.00 1.39 6.00 6.00 6.00 6.00 6.00 6.00 6.00 6.00 6.00 6.00 6.00 6.00 6.00 6.00 6.00 6.00 6.00 6.00 6.00 6.00 6.00 6.00 6.00 6.00 6.00 6.00 6.00 6.00 6.00 6.00 6.00 6.00 6.00 6.00 6.00 6.00 6.00 6.00 6.00 6.00 6.00 6.00 6.00 6.00 6.00 6.00 6.00 6.00 6.00 6.00 6.00 6.00 6.00 6.00 6.00 6.00 6.00 6.00 6.00 6.00 6.00 6.00 6.00 6.00 6.00 6.00 6.00 6.00 6.00 6.00 6.00 6.00 6.00 6.00 6.00 6.00 6.00 6.00 6.00 6.00 6.00 6.00 6.00 6.00 6.00 6.00 6.00 6.00 6.00 0.31 2.03 2.09 3.18 3.80 3.97 4.05 4.10 4.14 4.17 4.20 4.23 4.25 4.27 4.29 4.31 4.32 4.34 4.35 4.37 4.38 4.39 4.40 4.41 4.42 4.43 4.44 4.45 4.46 4.47
4.61 4.61 4.60 4.60 4.59 4.59 4.58 4.57 4.57 4.56 4.56 4.55 4.55 4.54 4.53 4.53 4.52 4.52 4.51 4.50 4.50 4.49 4.48 4.48 4.47 4.47 4.46 4.45 4.45 4.44 4.44 4.43 4.42 4.42 4.41 4.41 4.40 4.39 4.39 4.38 4.38 4.37 4.36 4.36 4.35 4.34 4.34 4.33 4.32 4.31 4.31 4.30 4.29 4.28 4.27 4.26 4.25 4.24 4.23 4.22 4.21 4.20 4.18 4.17 4.15 4.13 4.11 4.09 4.06 4.02 3.98 3.92 3.81 3.62 3.32 3.16 3.31 3.52 3.62 3.68 3.72 3.74 3.75 3.75 3.76 3.77 3.78 3.79 3.78 3.77 3.73 3.64 3.17 2.69 2.83 3.41 3.63 3.70 3.74 3.77 3.78 3.79 3.79 3.80 3.80 3.81 3.81 3.81 3.81 3.80 3.79 3.78 3.77 3.75 3.72 3.69 3.63 3.47 1.82 2.51 1.07 2.48 0.83 2.48 0.94 6.00 6.00 6.00 6.00 6.00 6.00 6.00 6.00 6.00 6.00 6.00 6.00 6.00 6.00 6.00 6.00 6.00 6.00 6.00 6.00 6.00 6.00 6.00 6.00 6.00 6.00 6.00 6.00 6.00 6.00 6.00 6.00 6.00 6.00 6.00 6.00 6.00 6.00 6.00 6.00 6.00 6.00 6.00 6.00 6.00 6.00 6.00 6.00 6.00 6.00 6.00 6.00 6.00 6.00 6.00 6.00 6.00 6.00 6.00 6.00 6.00 6.00 6.00 6.00 6.00 6.00 6.00 6.00 6.00 6.00 6.00 6.00 6.00 6.00 6.00 6.00 6.00 6.00 6.00 6.00 2.20 6.00 6.00 2.14 2.04 3.11 2.08 3.33 3.57 3.82 3.97 4.05 4.10 4.14 4.18 4.21 4.23 4.25 4.27 4.29 4.31 4.33 4.34 4.35 4.37 4.38 4.39 4.40 4.41 4.42 4.43 4.44 4.45 4.46 4.47
4.62 4.61 4.61 4.60 4.59 4.59 4.58 4.58 4.57 4.57 4.56 4.56 4.55 4.54 4.54 4.53 4.53 4.52 4.52 4.51 4.50 4.50 4.49 4.49 4.48 4.47 4.47 4.46 4.46 4.45 4.44 4.44 4.43 4.43 4.42 4.42 4.41 4.40 4.40 4.39 4.38 4.38 4.37 4.37 4.36 4.35 4.35 4.34 4.33 4.32 4.32 4.31 4.30 4.29 4.28 4.28 4.27 4.26 4.25 4.23 4.22 4.21 4.20 4.18 4.16 4.15 4.12 4.10 4.07 4.04 3.99 3.94 3.86 3.76 3.62 3.19 3.22 3.56 3.68 3.75 3.79 3.81 3.83 3.83 3.84 3.85 3.85 3.85 3.84 3.83 3.80 3.76 3.68 3.52 3.09 3.26 3.70 3.77 3.80 3.82 3.83 3.84 3.85 3.85 3.85 3.85 3.85 3.85 3.84 3.83 3.82 3.81 3.80 3.78 3.75 3.72 3.68 3.61 3.52 3.40 2.40 2.77 3.01 2.79 6.00 1.18 6.00 6.00 6.00 6.00 6.00 6.00 6.00 6.00 6.00 6.00 6.00 6.00 6.00 6.00 6.00 6.00 6.00 6.00 6.00 6.00 6.00 6.00 6.00 6.00 6.00 6.00 6.00 6.00 6.00 6.00 6.00 6.00 6.00 6.00 6.00 6.00 6.00 6.00 6.00 6.00 6.00 6.00 6.00 6.00 6.00 6.00 6.00 6.00 6.00 6.00 6.00 6.00 6.00 6.00 6.00 6.00 6.00 6.00 6.00 6.00 6.00 6.00 6.00 6.00 6.00 6.00 6.00 6.00 6.00 6.00 6.00 6.00 6.00 6.00 6.00 6.00 6.00 6.00 2.66 3.05 3.00 2.74 1.64 3.33 3.33 1.91 3.00 3.63 3.87 3.98 4.06 4.11 4.15 4.18 4.21 4.23 4.26 4.28 4.30 4.31 4.33 4.34 4.36 4.37 4.38 4.39 4.41 4.42 4.43 4.44 4.45 4.45 4.46 4.47
4.62 4.61 4.61 4.60 4.60 4.59 4.59 4.58 4.58 4.57 4.57 4.56 4.56 4.55 4.54 4.54 4.53 4.53 4.52 4.52 4.51 4.50 4.50 4.49 4.49 4.48 4.48 4.47 4.46 4.46 4.45 4.45 4.44 4.44 4.43 4.42 4.42 4.41 4.41 4.40 4.39 4.39 4.38 4.38 4.37 4.36 4.36 4.35 4.34 4.34 4.33 4.32 4.31 4.30 4.30 4.29 4.28 4.27 4.26 4.25 4.24 4.22 4.21 4.20 4.18 4.16 4.14 4.12 4.09 4.05 4.01 3.95 3.88 3.79 3.65 3.38 2.87 3.61 3.74 3.80 3.84 3.87 3.88 3.89 3.90 3.90 3.90 3.90 3.90 3.88 3.87 3.84 3.79 3.66 2.89 3.74 3.80 3.84 3.86 3.87 3.88 3.88 3.89 3.89 3.89 3.89 3.88 3.88 3.87 3.86 3.85 3.84 3.83 3.81 3.78 3.76 3.72 3.67 3.62 3.53 3.40 3.27 3.22 3.09 2.32 0.09 6.00 6.00 6.00 6.00 6.00 6.00 6.00 6.00 6.00 6.00 6.00 6.00 6.00 6.00 6.00 6.00 6.00 6.00 6.00 6.00 6.00 6.00 6.00 6.00 6.00 6.00 6.00 6.00 6.00 6.00 6.00 6.00 6.00 6.00 6.00 6.00 6.00 6.00 6.00 6.00 6.00 6.00 6.00 6.00 6.00 6.00 6.00 6.00 6.00 6.00 6.00 6.00 6.00 6.00 6.00 6.00 6.00 6.00 6.00 6.00 6.00 6.00 6.00 6.00 6.00 6.00 6.00 6.00 6.00 6.00 6.00 6.00 6.00 6.00 6.00 6.00 6.00 2.08 2.41 3.27 3.34 3.26 3.48 3.55 3.54 3.46 3.19 2.89 3.88 4.00 4.07 4.12 4.16 4.19 4.22 4.24 4.26 4.28 4.30 4.32 4.33 4.35 4.36 4.37 4.38 4.40 4.41 4.42 4.43 4.44 4.45 4.46 4.47 4.47
4.62 4.62 4.61 4.61 4.60 4.60 4.59 4.59 4.58 4.58 4.57 4.57 4.56 4.56 4.55 4.54 4.54 4.53 4.53 4.52 4.52 4.51 4.51 4.50 4.49 4.49 4.48 4.48 4.47 4.47 4.46 4.46 4.45 4.44 4.44 4.43 4.43 4.42 4.41 4.41 4.40 4.40 4.39 4.39 4.38 4.37 4.37 4.36 4.35 4.35 4.34 4.33 4.32 4.32 4.31 4.30 4.29 4.28 4.27 4.26 4.25 4.24 4.22 4.21 4.19 4.18 4.16 4.13 4.10 4.07 4.03 3.97 3.88 3.75 3.58 3.17 3.03 3.64 3.80 3.86 3.90 3.92 3.93 3.94 3.95 3.95 3.95 3.95 3.94 3.93 3.92 3.90 3.88 3.85 3.84 3.86 3.88 3.90 3.91 3.92 3.92 3.92 3.92 3.92 3.92 3.92 3.91 3.91 3.90 3.89 3.88 3.87 3.85 3.84 3.81 3.79 3.75 3.71 3.66 3.60 3.51 3.41 3.29 2.98 2.43 0.18 6.00 6.00 6.00 6.00 6.00 6.00 6.00 6.00 6.00 6.00 6.00 6.00 6.00 6.00 6.00 6.00 6.00 6.00 6.00 6.00 6.00 6.00 6.00 6.00 6.00 6.00 6.00 6.00 6.00 6.00 6.00 6.00 6.00 6.00 6.00 6.00 6.00 6.00 6.00 6.00 6.00 6.00 6.00 6.00 6.00 6.00 6.00 6.00 6.00 6.00 6.00 6.00 6.00 6.00 6.00 6.00 6.00 6.00 6.00 6.00 6.00 6.00 6.00 6.00 6.00 6.00 6.00 6.00 6.00 6.00 6.00 6.00 6.00 6.00 6.00 6.00 6.00 6.00 2.86 3.35 3.51 3.59 3.64 3.67 3.68 3.62 3.23 3.75 3.94 4.03 4.08 4.13 4.16 4.19 4.22 4.24 4.27 4.28 4.30 4.32 4.33 4.35 4.36 4.38 4.39 4.40 4.41 4.42 4.43 4.44 4.45 4.46 4.47 4.48
4.63 4.62 4.62 4.61 4.61 4.60 4.60 4.59 4.59 4.58 4.58 4.57 4.57 4.56 4.55 4.55 4.54 4.54 4.53 4.53 4.52 4.52 4.51 4.51 4.50 4.50 4.49 4.48 4.48 4.47 4.47 4.46 4.46 4.45 4.45 4.44 4.43 4.43 4.42 4.42 4.41 4.41 4.40 4.39 4.39 4.38 4.38 4.37 4.36 4.36 4.35 4.34 4.33 4.33 4.32 4.31 4.30 4.29 4.28 4.27 4.26 4.25 4.24 4.22 4.21 4.19 4.17 4.15 4.12 4.09 4.05 3.98 3.86 3.21 3.49 3.54 3.71 3.71 3.87 3.92 3.95 3.96 3.98 3.98 3.99 3.99 3.99 3.99 3.98 3.98 3.97 3.96 3.95 3.94 3.93 3.94 3.94 3.95 3.95 3.95 3.96 3.96 3.96 3.95 3.95 3.95 3.94 3.93 3.93 3.92 3.91 3.89 3.88 3.86 3.84 3.81 3.78 3.74 3.69 3.62 3.52 3.38 3.19 1.91 1.99 6.00 6.00 6.00 6.00 6.00 6.00 6.00 6.00 6.00 6.00 6.00 6.00 6.00 6.00 6.00 6.00 6.00 6.00 6.00 6.00 6.00 6.00 6.00 6.00 6.00 6.00 6.00 6.00 6.00 6.00 6.00 6.00 6.00 6.00 6.00 6.00 6.00 6.00 6.00 6.00 6.00 6.00 6.00 6.00 6.00 6.00 6.00 6.00 6.00 6.00 6.00 6.00 6.00 6.00 6.00 6.00 6.00 6.00 6.00 6.00 6.00 6.00 6.00 6.00 6.00 6.00 6.00 6.00 6.00 6.00 6.00 6.00 6.00 6.00 6.00 6.00 6.00 6.00 6.00 1.27 3.16 3.58 3.67 3.72 3.76 3.78 3.80 3.82 3.92 4.00 4.06 4.10 4.14 4.17 4.20 4.23 4.25 4.27 4.29 4.31 4.32 4.34 4.35 4.37 4.38 4.39 4.40 4.41 4.42 4.43 4.44 4.45 4.46 4.47 4.48
4.63 4.62 4.62 4.61 4.61 4.60 4.60 4.60 4.59 4.59 4.58 4.58 4.57 4.56 4.56 4.55 4.55 4.54 4.54 4.53 4.53 4.52 4.52 4.51 4.51 4.50 4.50 4.49 4.49 4.48 4.48 4.47 4.46 4.46 4.45 4.45 4.44 4.44 4.43 4.43 4.42 4.41 4.41 4.40 4.40 4.39 4.38 4.38 4.37 4.37 4.36 4.35 4.34 4.34 4.33 4.32 4.31 4.30 4.29 4.28 4.27 4.26 4.25 4.24 4.22 4.21 4.19 4.17 4.15 4.11 4.07 4.01 3.86 2.82 3.78 3.87 3.90 3.93 3.96 3.98 4.00 4.01 4.02 4.02 4.02 4.02 4.02 4.02 4.02 4.01 4.01 4.00 4.00 3.99 3.99 3.99 3.99 3.99 3.99 3.99 3.99 3.99 3.98 3.98 3.98 3.97 3.97 3.96 3.95 3.94 3.93 3.92 3.90 3.89 3.86 3.84 3.81 3.76 3.71 3.62 3.43 3.14 1.77 2.62 0.57 6.00 6.00 6.00 6.00 6.00 6.00 6.00 6.00 6.00 6.00 6.00 6.00 6.00 6.00 6.00 6.00 6.00 6.00 6.00 6.00 6.00 6.00 6.00 6.00 6.00 6.00 6.00 6.00 6.00 6.00 6.00 6.00 6.00 6.00 6.00 6.00 6.00 6.00 6.00 6.00 6.00 6.00 6.00 6.00 6.00 6.00 6.00 6.00 6.00 6.00 6.00 6.00 6.00 6.00 6.00 6.00 6.00 6.00 6.00 6.00 6.00 6.00 6.00 6.00 6.00 6.00 6.00 6.00 6.00 6.00 6.00 6.00 6.00 6.00 6.00 6.00 0.85 2.94 2.60 2.33 3.44 3.64 3.73 3.78 3.82 3.86 3.90 3.94 3.99 4.04 4.08 4.12 4.15 4.18 4.21 4.23 4.26 4.28 4.29 4.31 4.33 4.34 4.36 4.37 4.38 4.39 4.40 4.42 4.43 4.44 4.45 4.45 4.46 4.47 4.48
4.63 4.63 4.62 4.62 4.61 4.61 4.60 4.60 4.59 4.59 4.58 4.58 4.57 4.57 4.56 4.56 4.55 4.55 4.54 4.54 4.53 4.53 4.52 4.52 4.51 4.51 4.50 4.50 4.49 4.49 4.48 4.48 4.47 4.47 4.46 4.46 4.45 4.44 4.44 4.43 4.43 4.42 4.42 4.41 4.41 4.40 4.39 4.39 4.38 4.37 4.37 4.36 4.35 4.35 4.34 4.33 4.32 4.31 4.31 4.30 4.29 4.28 4.27 4.25 4.24 4.22 4.21 4.19 4.17 4.14 4.11 4.06 4.00 3.95 3.97 3.98 4.00 4.01 4.02 4.03 4.04 4.05 4.05 4.06 4.06 4.06 4.06 4.05 4.05 4.05 4.04 4.04 4.03 4.03 4.03 4.02 4.02 4.02 4.02 4.02 4.02 4.01 4.01 4.01 4.00 4.00 3.99 3.98 3.97 3.97 3.95 3.94 3.93 3.91 3.89 3.86 3.83 3.79 3.72 3.61 2.77 2.00 2.02 1.67 6.00 1.96 1.31 1.71 2.53 6.00 6.00 6.00 6.00 6.00 6.00 6.00 6.00 6.00 6.00 6.00 6.00 6.00 6.00 6.00 6.00 6.00 6.00 6.00 6.00 6.00 6.00 6.00 6.00 6.00 6.00 6.00 6.00 6.00 6.00 6.00 6.00 6.00 6.00 6.00 6.00 6.00 6.00 6.00 6.00 6.00 6.00 6.00 6.00 6.00 6.00 6.00 6.00 6.00 6.00 6.00 6.00 6.00 6.00 6.00 6.00 6.00 6.00 6.00 6.00 6.00 6.00 6.00 6.00 6.00 6.00 6.00 6.00 6.00 6.00 6.00 2.08 6.00 3.13 3.36 3.41 3.59 3.70 3.77 3.82 3.87 3.91 3.95 3.99 4.03 4.07 4.10 4.14 4.17 4.19 4.22 4.24 4.26 4.28 4.30 4.32 4.33 4.35 4.36 4.37 4.38 4.40 4.41 4.42 4.43 4.44 4.45 4.46 4.47 4.47 4.48
4.64 4.63 4.63 4.62 4.62 4.61 4.61 4.60 4.60 4.59 4.59 4.58 4.58 4.57 4.57 4.56 4.56 4.55 4.55 4.54 4.54 4.53 4.53 4.52 4.52 4.51 4.51 4.50 4.50 4.49 4.49 4.48 4.48 4.47 4.47 4.46 4.46 4.45 4.45 4.44 4.44 4.43 4.43 4.42 4.41 4.41 4.40 4.40 4.39 4.38 4.38 4.37 4.36 4.36 4.35 4.34 4.33 4.33 4.32 4.31 4.30 4.29 4.28 4.27 4.26 4.24 4.23 4.21 4.19 4.17 4.15 4.12 4.09 4.07 4.06 4.06 4.07 4.07 4.07 4.08 4.08 4.08 4.09 4.09 4.09 4.09 4.09 4.08 4.08 4.08 4.07 4.07 4.07 4.06 4.06 4.06 4.05 4.05 4.05 4.05 4.04 4.04 4.03 4.03 4.03 4.02 4.01 4.01 4.00 3.99 3.98 3.96 3.95 3.93 3.91 3.89 3.86 3.81 3.74 3.56 2.86 1.59 1.33 0.84 2.64 2.84 1.80 1.91 2.99 2.81 6.00 6.00 6.00 6.00 6.00 6.00 6.00 6.00 6.00 6.00 6.00 6.00 6.00 6.00 6.00 6.00 6.00 6.00 6.00 6.00 6.00 6.00 6.00 6.00 6.00 6.00 6.00 6.00 6.00 6.00 6.00 6.00 6.00 6.00 6.00 6.00 6.00 6.00 6.00 6.00 6.00 6.00 6.00 6.00 6.00 6.00 6.00 6.00 6.00 6.00 6.00 6.00 6.00 6.00 6.00 6.00 6.00 6.00 6.00 6.00 6.00 6.00 6.00 6.00 6.00 6.00 6.00 6.00 6.00 6.00 2.17 3.12 3.31 3.45 3.55 3.65 3.73 3.80 3.85 3.90 3.94 3.98 4.02 4.05 4.09 4.12 4.15 4.18 4.20 4.23 4.25 4.27 4.29 4.30 4.32 4.34 4.35 4.36 4.38 4.39 4.40 4.41 4.42 4.43 4.44 4.45 4.46 4.47 4.48 4.49
4.64 4.63 4.63 4.63 4.62 4.62 4.61 4.61 4.60 4.60 4.59 4.59 4.58 4.58 4.57 4.57 4.56 4.56 4.56 4.55 4.55 4.54 4.54 4.53 4.53 4.52 4.52 4.51 4.51 4.50 4.50 4.49 4.49 4.48 4.48 4.47 4.47 4.46 4.45 4.45 4.44 4.44 4.43 4.43 4.42 4.42 4.41 4.40 4.40 4.39 4.39 4.38 4.37 4.37 4.36 4.35 4.34 4.34 4.33 4.32 4.31 4.30 4.29 4.28 4.27 4.26 4.25 4.23 4.22 4.20 4.18 4.16 4.15 4.13 4.12 4.12 4.12 4.11 4.11 4.12 4.12 4.12 4.12 4.12 4.12 4.11 4.11 4.11 4.11 4.10 4.10 4.10 4.09 4.09 4.09 4.08 4.08 4.08 4.07 4.07 4.07 4.06 4.06 4.05 4.05 4.04 4.03 4.03 4.02 4.01 4.00 3.98 3.97 3.95 3.93 3.91 3.88 3.84 3.78 3.65 3.45 3.44 3.12 3.10 1.62 3.07 3.22 3.25 3.19 2.69 1.14 6.00 6.00 6.00 6.00 6.00 6.00 6.00 6.00 6.00 6.00 6.00 6.00 6.00 6.00 6.00 6.00 6.00 6.00 6.00 6.00 6.00 6.00 6.00 6.00 6.00 6.00 6.00 6.00 6.00 6.00 6.00 6.00 6.00 6.00 6.00 6.00 6.00 6.00 6.00 6.00 6.00 6.00 6.00 6.00 6.00 6.00 6.00 6.00 6.00 6.00 6.00 6.00 6.00 6.00 6.00 6.00 6.00 6.00 6.00 6.00 6.00 6.00 6.00 6.00 6.00 6.00 6.00 6.00 2.47 2.72 3.00 3.22 3.42 3.54 3.65 3.74 3.81 3.86 3.91 3.96 4.00 4.04 4.07 4.10 4.13 4.16 4.19 4.21 4.23 4.26 4.27 4.29 4.31 4.33 4.34 4.35 4.37 4.38 4.39 4.40 4.41 4.42 4.43 4.44 4.45 4.46 4.47 4.48 4.49
4.64 4.64 4.63 4.63 4.62 4.62 4.62 4.61 4.61 4.60 4.60 4.59 4.59 4.58 4.58 4.57 4.57 4.56 4.56 4.56 4.55 4.55 4.54 4.54 4.53 4.53 4.52 4.52 4.51 4.51 4.50 4.50 4.49 4.49 4.48 4.48 4.47 4.47 4.46 4.46 4.45 4.45 4.44 4.44 4.43 4.42 4.42 4.41 4.41 4.40 4.39 4.39 4.38 4.38 4.37 4.36 4.35 4.35 4.34 4.33 4.32 4.31 4.31 4.30 4.29 4.27 4.26 4.25 4.24 4.22 4.21 4.20 4.18 4.17 4.17 4.16 4.15 4.15 4.15 4.15 4.15 4.15 4.14 4.14 4.14 4.14 4.14 4.13 4.13 4.13 4.12 4.12 4.12 4.11 4.11 4.11 4.10 4.10 4.10 4.09 4.09 4.08 4.08 4.07 4.07 4.06 4.05 4.05 4.04 4.03 4.02 4.00 3.99 3.98 3.96 3.94 3.91 3.88 3.84 3.79 3.73 3.68 3.61 3.42 1.13 2.28 3.39 3.40 3.33 1.66 0.39 2.69 1.63 6.00 6.00 6.00 6.00 6.00 6.00 6.00 6.00 6.00 6.00 6.00 6.00 6.00 6.00 6.00 6.00 6.00 6.00 6.00 6.00 6.00 6.00 6.00 6.00 6.00 6.00 6.00 6.00 6.00 6.00 6.00 6.00 6.00 6.00 6.00 6.00 6.00 6.00 6.00 6.00 6.00 6.00 6.00 6.00 6.00 6.00 6.00 6.00 6.00 6.00 6.00 6.00 6.00 6.00 6.00 6.00 6.00 6.00 6.00 6.00 6.00 6.00 6.00 6.00 6.00 6.00 6.00 6.00 6.00 1.94 3.17 2.47 3.57 3.71 3.80 3.87 3.92 3.97 4.01 4.05 4.08 4.12 4.15 4.17 4.20 4.22 4.24 4.26 4.28 4.30 4.31 4.33 4.34 4.36 4.37 4.38 4.40 4.41 4.42 4.43 4.44 4.45 4.46 4.47 4.47 4.48 4.49
4.64 4.64 4.64 4.63 4.63 4.62 4.62 4.61 4.61 4.61 4.60 4.60 4.59 4.59 4.58 4.58 4.57 4.57 4.57 4.56 4.56 4.55 4.55 4.54 4.54 4.53 4.53 4.52 4.52 4.51 4.51 4.50 4.50 4.49 4.49 4.48 4.48 4.47 4.47 4.46 4.46 4.45 4.45 4.44 4.44 4.43 4.43 4.42 4.42 4.41 4.40 4.40 4.39 4.38 4.38 4.37 4.36 4.36 4.35 4.34 4.33 4.33 4.32 4.31 4.30 4.29 4.28 4.27 4.26 4.25 4.24 4.22 4.21 4.21 4.20 4.19 4.19 4.18 4.18 4.18 4.17 4.17 4.17 4.17 4.16 4.16 4.16 4.16 4.15 4.15 4.15 4.14 4.14 4.14 4.13 4.13 4.12 4.12 4.12 4.11 4.11 4.10 4.10 4.09 4.09 4.08 4.07 4.06 4.06 4.05 4.04 4.02 4.01 4.00 3.98 3.96 3.94 3.91 3.88 3.85 3.81 3.77 3.72 3.65 3.58 3.55 3.54 3.50 3.45 3.36 3.24 3.13 2.98 2.75 2.35 6.00 6.00 6.00 6.00 6.00 6.00 6.00 6.00 6.00 6.00 6.00 6.00 6.00 6.00 6.00 6.00 6.00 6.00 6.00 6.00 6.00 6.00 6.00 6.00 6.00 6.00 6.00 6.00 6.00 6.00 6.00 6.00 6.00 6.00 6.00 6.00 6.00 6.00 6.00 6.00 6.00 6.00 6.00 6.00 6.00 6.00 6.00 6.00 6.00 6.00 6.00 6.00 6.00 6.00 6.00 6.00 6.00 6.00 6.00 6.00 6.00 6.00 6.00 6.00 6.00 6.00 6.00 6.00 6.00 2.13 3.26 3.65 3.78 3.86 3.92 3.97 4.02 4.06 4.09 4.13 4.15 4.18 4.21 4.23 4.25 4.27 4.29 4.30 4.32 4.34 4.35 4.36 4.38 4.39 4.40 4.41 4.42 4.43 4.44 4.45 4.46 4.47 4.48 4.49 4.49
4.65 4.64 4.64 4.64 4.63 4.63 4.62 4.62 4.61 4.61 4.61 4.60 4.60 4.59 4.59 4.58 4.58 4.57 4.57 4.57 4.56 4.56 4.55 4.55 4.54 4.54 4.53 4.53 4.52 4.52 4.51 4.51 4.50 4.50 4.50 4.49 4.49 4.48 4.48 4.47 4.47 4.46 4.46 4.45 4.45 4.44 4.43 4.43 4.42 4.42 4.41 4.41 4.40 4.39 4.39 4.38 4.37 4.37 4.36 4.35 4.35 4.34 4.33 4.32 4.31 4.30 4.30 4.29 4.28 4.27 4.26 4.25 4.24 4.23 4.22 4.22 4.21 4.21 4.20 4.20 4.20 4.19 4.19 4.19 4.19 4.18 4.18 4.18 4.17 4.17 4.17 4.16 4.16 4.16 4.15 4.15 4.14 4.14 4.14 4.13 4.13 4.12 4.12 4.11 4.10 4.10 4.09 4.08 4.07 4.06 4.05 4.04 4.03 4.02 4.00 3.98 3.96 3.94 3.92 3.89 3.86 3.83 3.79 3.75 3.70 3.66 3.62 3.57 3.51 3.42 3.32 3.17 2.82 1.70 6.00 6.00 6.00 6.00 6.00 6.00 6.00 6.00 6.00 6.00 6.00 6.00 6.00 6.00 6.00 6.00 6.00 6.00 6.00 6.00 6.00 6.00 6.00 6.00 6.00 6.00 6.00 6.00 6.00 6.00 6.00 6.00 6.00 6.00 6.00 6.00 6.00 6.00 6.00 6.00 6.00 6.00 6.00 6.00 6.00 6.00 6.00 6.00 6.00 6.00 6.00 6.00 6.00 6.00 6.00 6.00 6.00 6.00 6.00 6.00 6.00 6.00 6.00 6.00 6.00 6.00 6.00 6.00 6.00 2.11 2.76 3.09 3.45 3.75 3.84 3.91 3.97 4.02 4.06 4.10 4.13 4.16 4.19 4.21 4.24 4.26 4.28 4.29 4.31 4.33 4.34 4.35 4.37 4.38 4.39 4.40 4.41 4.42 4.43 4.44 4.45 4.46 4.47 4.48 4.49 4.50
4.65 4.65 4.64 4.64 4.63 4.63 4.63 4.62 4.62 4.61 4.61 4.61 4.60 4.60 4.59 4.59 4.58 4.58 4.57 4.57 4.57 4.56 4.56 4.55 4.55 4.54 4.54 4.53 4.53 4.52 4.52 4.52 4.51 4.51 4.50 4.50 4.49 4.49 4.48 4.48 4.47 4.47 4.46 4.46 4.45 4.45 4.44 4.44 4.43 4.43 4.42 4.41 4.41 4.40 4.40 4.39 4.38 4.38 4.37 4.36 4.36 4.35 4.34 4.33 4.33 4.32 4.31 4.30 4.29 4.29 4.28 4.27 4.26 4.25 4.25 4.24 4.24 4.23 4.23 4.22 4.22 4.22 4.21 4.21 4.21 4.20 4.20 4.20 4.19 4.19 4.19 4.18 4.18 4.17 4.17 4.17 4.16 4.16 4.15 4.15 4.14 4.14 4.13 4.13 4.12 4.11 4.11 4.10 4.09 4.08 4.07 4.06 4.05 4.04 4.02 4.01 3.99 3.97 3.95 3.92 3.90 3.87 3.83 3.80 3.76 3.72 3.67 3.61 3.53 3.41 2.15 3.00 0.05 6.00 6.00 6.00 6.00 6.00 6.00 6.00 6.00 6.00 6.00 6.00 6.00 6.00 6.00 6.00 6.00 6.00 6.00 6.00 6.00 6.00 6.00 6.00 6.00 6.00 6.00 6.00 6.00 6.00 6.00 6.00 6.00 6.00 6.00 6.00 6.00 6.00 6.00 6.00 6.00 6.00 6.00 6.00 6.00 6.00 6.00 6.00 6.00 6.00 6.00 6.00 6.00 6.00 6.00 6.00 6.00 6.00 6.00 6.00 6.00 1.92 2.61 6.00 6.00 6.00 6.00 6.00 6.00 6.00 6.00 2.40 3.19 3.41 3.57 3.69 3.79 3.88 3.96 4.02 4.06 4.10 4.14 4.17 4.20 4.22 4.24 4.26 4.28 4.30 4.32 4.33 4.35 4.36 4.37 4.38 4.40 4.41 4.42 4.43 4.44 4.45 4.46 4.47 4.47 4.48 4.49 4.50
4.65 4.65 4.65 4.64 4.64 4.63 4.63 4.63 4.62 4.62 4.61 4.61 4.61 4.60 4.60 4.59 4.59 4.58 4.58 4.57 4.57 4.57 4.56 4.56 4.55 4.55 4.54 4.54 4.53 4.53 4.53 4.52 4.52 4.51 4.51 4.50 4.50 4.49 4.49 4.48 4.48 4.47 4.47 4.46 4.46 4.45 4.45 4.44 4.44 4.43 4.43 4.42 4.42 4.41 4.41 4.40 4.39 4.39 4.38 4.37 4.37 4.36 4.35 4.35 4.34 4.33 4.32 4.32 4.31 4.30 4.29 4.29 4.28 4.27 4.27 4.26 4.26 4.25 4.25 4.24 4.24 4.24 4.23 4.23 4.22 4.22 4.22 4.21 4.21 4.21 4.20 4.20 4.20 4.19 4.19 4.18 4.18 4.17 4.17 4.17 4.16 4.16 4.15 4.14 4.14 4.13 4.12 4.12 4.11 4.10 4.09 4.08 4.07 4.05 4.04 4.03 4.01 3.99 3.97 3.95 3.92 3.90 3.86 3.83 3.79 3.75 3.70 3.63 3.54 1.74 2.30 0.16 6.00 6.00 6.00 6.00 6.00 6.00 6.00 1.78 6.00 6.00 6.00 6.00 6.00 6.00 6.00 6.00 6.00 6.00 6.00 6.00 6.00 6.00 6.00 6.00 6.00 6.00 6.00 6.00 6.00 6.00 6.00 6.00 6.00 6.00 6.00 6.00 6.00 6.00 6.00 6.00 6.00 6.00 6.00 6.00 6.00 6.00 6.00 6.00 6.00 6.00 6.00 6.00 6.00 6.00 6.00 6.00 6.00 6.00 6.00 6.00 6.00 2.89 2.90 6.00 6.00 6.00 6.00 6.00 6.00 6.00 6.00 1.95 1.90 3.29 3.46 3.48 3.49 3.82 3.94 4.01 4.07 4.11 4.14 4.18 4.20 4.23 4.25 4.27 4.29 4.31 4.32 4.34 4.35 4.36 4.38 4.39 4.40 4.41 4.42 4.43 4.44 4.45 4.46 4.47 4.48 4.49 4.49 4.50
4.66 4.65 4.65 4.65 4.64 4.64 4.63 4.63 4.63 4.62 4.62 4.61 4.61 4.60 4.60 4.60 4.59 4.59 4.58 4.58 4.58 4.57 4.57 4.56 4.56 4.55 4.55 4.54 4.54 4.54 4.53 4.53 4.52 4.52 4.51 4.51 4.50 4.50 4.50 4.49 4.49 4.48 4.48 4.47 4.47 4.46 4.46 4.45 4.45 4.44 4.44 4.43 4.43 4.42 4.41 4.41 4.40 4.40 4.39 4.38 4.38 4.37 4.37 4.36 4.35 4.35 4.34 4.33 4.32 4.32 4.31 4.30 4.30 4.29 4.29 4.28 4.27 4.27 4.27 4.26 4.26 4.25 4.25 4.25 4.24 4.24 4.23 4.23 4.23 4.22 4.22 4.22 4.21 4.21 4.20 4.20 4.20 4.19 4.19 4.18 4.18 4.17 4.17 4.16 4.15 4.15 4.14 4.13 4.12 4.11 4.11 4.10 4.08 4.07 4.06 4.04 4.03 4.01 3.99 3.97 3.95 3.92 3.89 3.85 3.81 3.77 3.71 3.64 3.55 3.37 2.69 2.48 2.05 6.00 6.00 6.00 6.00 6.00 6.00 1.24 2.57 2.07 6.00 6.00 6.00 6.00 6.00 6.00 6.00 6.00 6.00 6.00 6.00 6.00 6.00 6.00 6.00 6.00 6.00 6.00 6.00 6.00 6.00 6.00 6.00 6.00 6.00 6.00 6.00 6.00 6.00 6.00 6.00 6.00 6.00 6.00 6.00 6.00 6.00 6.00 6.00 6.00 6.00 6.00 6.00 6.00 6.00 6.00 6.00 6.00 6.00 2.59 2.96 3.17 3.14 2.82 6.00 6.00 6.00 6.00 6.00 1.35 6.00 6.00 2.78 3.13 3.18 2.26 3.40 3.73 3.92 4.01 4.07 4.11 4.15 4.18 4.21 4.23 4.26 4.28 4.29 4.31 4.33 4.34 4.36 4.37 4.38 4.39 4.41 4.42 4.43 4.44 4.45 4.46 4.46 4.47 4.48 4.49 4.50 4.50
4.66 4.66 4.65 4.65 4.64 4.64 4.64 4.63 4.63 4.63 4.62 4.62 4.61 4.61 4.60 4.60 4.60 4.59 4.59 4.58 4.58 4.58 4.57 4.57 4.56 4.56 4.55 4.55 4.55 4.54 4.54 4.53 4.53 4.52 4.52 4.52 4.51 4.51 4.50 4.50 4.49 4.49 4.48 4.48 4.47 4.47 4.46 4.46 4.45 4.45 4.44 4.44 4.43 4.43 4.42 4.42 4.41 4.41 4.40 4.39 4.39 4.38 4.38 4.37 4.36 4.36 4.35 4.34 4.34 4.33 4.33 4.32 4.31 4.31 4.30 4.30 4.29 4.29 4.28 4.28 4.27 4.27 4.27 4.26 4.26 4.25 4.25 4.25 4.24 4.24 4.24 4.23 4.23 4.22 4.22 4.21 4.21 4.21 4.20 4.20 4.19 4.19 4.18 4.17 4.17 4.16 4.15 4.15 4.14 4.13 4.12 4.11 4.10 4.09 4.08 4.06 4.05 4.03 4.01 3.99 3.97 3.94 3.91 3.87 3.83 3.77 3.70 3.62 3.52 3.38 3.12 2.93 0.32 6.00 6.00 6.00 6.00 6.00 6.00 2.14 2.89 2.80 2.58 6.00 6.00 6.00 6.00 6.00 6.00 6.00 6.00 6.00 6.00 6.00 6.00 6.00 6.00 6.00 6.00 6.00 6.00 6.00 6.00 6.00 6.00 6.00 6.00 6.00 6.00 6.00 6.00 6.00 6.00 6.00 6.00 6.00 6.00 6.00 6.00 6.00 6.00 6.00 6.00 6.00 6.00 6.00 6.00 6.00 6.00 2.65 2.08 1.32 3.21 3.35 3.31 2.95 2.21 0.94 6.00 2.27 1.71 2.81 1.76 2.77 1.51 2.46 2.71 3.30 3.60 3.78 3.91 4.01 4.07 4.12 4.16 4.19 4.22 4.24 4.26 4.28 4.30 4.32 4.33 4.35 4.36 4.38 4.39 4.40 4.41 4.42 4.43 4.44 4.45 4.46 4.47 4.48 4.48 4.49 4.50 4.51
4.66 4.66 4.66 4.65 4.65 4.64 4.64 4.64 4.63 4.63 4.62 4.62 4.62 4.61 4.61 4.60 4.60 4.60 4.59 4.59 4.58 4.58 4.58 4.57 4.57 4.56 4.56 4.56 4.55 4.55 4.54 4.54 4.53 4.53 4.53 4.52 4.52 4.51 4.51 4.50 4.50 4.49 4.49 4.49 4.48 4.48 4.47 4.47 4.46 4.46 4.45 4.45 4.44 4.44 4.43 4.43 4.42 4.41 4.41 4.40 4.40 4.39 4.39 4.38 4.37 4.37 4.36 4.36 4.35 4.34 4.34 4.33 4.33 4.32 4.32 4.31 4.31 4.30 4.30 4.29 4.29 4.28 4.28 4.28 4.27 4.27 4.27 4.26 4.26 4.25 4.25 4.25 4.24 4.24 4.23 4.23 4.22 4.22 4.22 4.21 4.21 4.20 4.19 4.19 4.18 4.18 4.17 4.16 4.15 4.15 4.14 4.13 4.12 4.10 4.09 4.08 4.06 4.05 4.03 4.01 3.99 3.96 3.93 3.89 3.84 3.77 3.65 3.49 3.40 3.32 3.19 2.24 1.72 6.00 6.00 6.00 6.00 6.00 2.22 1.17 3.10 3.12 2.28 1.19 2.50 0.46 1.87 6.00 6.00 6.00 6.00 6.00 6.00 6.00 6.00 6.00 6.00 6.00 6.00 6.00 6.00 6.00 6.00 6.00 6.00 6.00 6.00 6.00 6.00 6.00 6.00 6.00 6.00 6.00 6.00 6.00 6.00 6.00 6.00 6.00 6.00 6.00 6.00 6.00 6.00 6.00 6.00 0.45 2.84 3.10 3.13 3.09 3.43 3.48 3.47 3.41 3.28 3.00 1.72 2.60 3.18 2.25 3.12 3.22 3.11 2.25 2.88 2.91 3.14 3.47 3.87 4.00 4.08 4.13 4.17 4.20 4.23 4.25 4.27 4.29 4.31 4.33 4.34 4.35 4.37 4.38 4.39 4.40 4.42 4.43 4.44 4.45 4.45 4.46 4.47 4.48 4.49 4.50 4.50 4.51
4.67 4.66 4.66 4.66 4.65 4.65 4.64 4.64 4.64 4.63 4.63 4.62 4.62 4.62 4.61 4.61 4.61 4.60 4.60 4.59 4.59 4.59 4.58 4.58 4.57 4.57 4.56 4.56 4.56 4.55 4.55 4.54 4.54 4.54 4.53 4.53 4.52 4.52 4.51 4.51 4.51 4.50 4.50 4.49 4.49 4.48 4.48 4.47 4.47 4.46 4.46 4.45 4.45 4.44 4.44 4.43 4.43 4.42 4.42 4.41 4.41 4.40 4.40 4.39 4.39 4.38 4.37 4.37 4.36 4.36 4.35 4.35 4.34 4.34 4.33 4.33 4.32 4.32 4.31 4.31 4.30 4.30 4.30 4.29 4.29 4.28 4.28 4.28 4.27 4.27 4.26 4.26 4.26 4.25 4.25 4.24 4.24 4.23 4.23 4.22 4.22 4.21 4.21 4.20 4.20 4.19 4.18 4.18 4.17 4.16 4.15 4.14 4.13 4.12 4.11 4.09 4.08 4.06 4.05 4.03 4.00 3.98 3.94 3.90 3.85 3.77 3.57 2.59 2.54 1.44 3.04 2.82 0.98 6.00 1.30 2.46 2.38 2.19 2.36 3.06 3.27 3.30 3.23 3.09 3.04 6.00 6.00 6.00 6.00 1.46 6.00 6.00 6.00 6.00 6.00 6.00 6.00 6.00 6.00 6.00 6.00 6.00 6.00 6.00 6.00 6.00 6.00 6.00 6.00 6.00 6.00 6.00 6.00 6.00 6.00 6.00 6.00 6.00 6.00 6.00 6.00 6.00 6.00 1.80 6.00 6.00 6.00 6.00 6.00 3.23 3.39 3.49 3.56 3.58 3.58 3.52 3.28 2.53 3.04 3.20 3.38 3.48 3.46 3.38 3.11 2.02 3.38 3.44 3.54 2.24 3.87 4.02 4.09 4.14 4.18 4.21 4.24 4.26 4.28 4.30 4.32 4.33 4.35 4.36 4.37 4.39 4.40 4.41 4.42 4.43 4.44 4.45 4.46 4.47 4.48 4.48 4.49 4.50 4.51 4.51
4.67 4.67 4.66 4.66 4.65 4.65 4.65 4.64 4.64 4.64 4.63 4.63 4.62 4.62 4.62 4.61 4.61 4.61 4.60 4.60 4.59 4.59 4.59 4.58 4.58 4.57 4.57 4.57 4.56 4.56 4.55 4.55 4.54 4.54 4.54 4.53 4.53 4.52 4.52 4.52 4.51 4.51 4.50 4.50 4.49 4.49 4.48 4.48 4.48 4.47 4.47 4.46 4.46 4.45 4.45 4.44 4.44 4.43 4.43 4.42 4.42 4.41 4.41 4.40 4.40 4.39 4.38 4.38 4.37 4.37 4.36 4.36 4.35 4.35 4.34 4.34 4.33 4.33 4.33 4.32 4.32 4.31 4.31 4.30 4.30 4.30 4.29 4.29 4.29 4.28 4.28 4.27 4.27 4.26 4.26 4.26 4.25 4.25 4.24 4.24 4.23 4.23 4.22 4.22 4.21 4.20 4.20 4.19 4.18 4.17 4.17 4.16 4.15 4.14 4.12 4.11 4.10 4.08 4.06 4.04 4.02 3.99 3.96 3.92 3.87 3.79 3.67 3.07 3.23 2.23 2.07 2.61 1.76 2.69 1.72 3.02 2.84 1.12 0.52 2.73 3.42 3.43 3.40 3.31 3.12 2.47 6.00 6.00 6.00 2.53 1.71 2.40 6.00 6.00 6.00 6.00 6.00 6.00 6.00 6.00 6.00 6.00 6.00 6.00 6.00 6.00 6.00 6.00 6.00 6.00 6.00 6.00 6.00 6.00 6.00 6.00 6.00 6.00 6.00 1.76 6.00 1.52 2.68 2.95 2.47 0.84 6.00 6.00 2.81 3.02 3.44 3.58 3.64 3.67 3.68 3.65 3.59 3.58 3.59 3.60 3.62 3.61 3.56 3.45 3.26 2.77 3.49 3.69 3.77 3.83 3.96 4.05 4.11 4.16 4.19 4.22 4.25 4.27 4.29 4.31 4.32 4.34 4.35 4.37 4.38 4.39 4.40 4.41 4.43 4.44 4.44 4.45 4.46 4.47 4.48 4.49 4.50 4.50 4.51 4.52
4.67 4.67 4.67 4.66 4.66 4.65 4.65 4.65 4.64 4.64 4.64 4.63 4.63 4.62 4.62 4.62 4.61 4.61 4.61 4.60 4.60 4.59 4.59 4.59 4.58 4.58 4.57 4.57 4.57 4.56 4.56 4.55 4.55 4.55 4.54 4.54 4.53 4.53 4.53 4.52 4.52 4.51 4.51 4.50 4.50 4.50 4.49 4.49 4.48 4.48 4.47 4.47 4.46 4.46 4.45 4.45 4.45 4.44 4.44 4.43 4.43 4.42 4.42 4.41 4.41 4.40 4.39 4.39 4.38 4.38 4.37 4.37 4.36 4.36 4.36 4.35 4.35 4.34 4.34 4.33 4.33 4.33 4.32 4.32 4.31 4.31 4.31 4.30 4.30 4.29 4.29 4.29 4.28 4.28 4.27 4.27 4.26 4.26 4.26 4.25 4.25 4.24 4.23 4.23 4.22 4.22 4.21 4.20 4.20 4.19 4.18 4.17 4.16 4.15 4.14 4.13 4.11 4.10 4.08 4.06 4.04 4.01 3.98 3.94 3.88 3.80 3.70 3.56 3.38 3.14 2.70 1.35 2.51 2.94 3.14 3.27 3.31 3.31 3.39 3.51 3.54 3.54 3.50 3.34 2.20 2.22 2.05 1.57 2.30 2.99 3.03 2.54 6.00 0.89 2.60 1.24 6.00 6.00 6.00 1.01 6.00 6.00 6.00 6.00 6.00 6.00 6.00 6.00 6.00 6.00 6.00 6.00 6.00 6.00 1.72 6.00 2.36 6.00 2.48 2.66 6.00 2.19 1.90 3.22 3.17 2.77 2.63 1.60 0.64 3.12 3.51 3.66 3.71 3.74 3.76 3.76 3.76 3.75 3.75 3.74 3.73 3.70 3.65 3.47 2.87 6.00 3.55 3.77 3.88 3.96 4.03 4.09 4.14 4.17 4.21 4.23 4.26 4.28 4.30 4.32 4.33 4.35 4.36 4.37 4.39 4.40 4.41 4.42 4.43 4.44 4.45 4.46 4.47 4.48 4.48 4.49 4.50 4.51 4.51 4.52
4.68 4.67 4.67 4.66 4.66 4.66 4.65 4.65 4.65 4.64 4.64 4.64 4.63 4.63 4.62 4.62 4.62 4.61 4.61 4.61 4.60 4.60 4.59 4.59 4.59 4.58 4.58 4.58 4.57 4.57 4.56 4.56 4.56 4.55 4.55 4.54 4.54 4.54 4.53 4.53 4.52 4.52 4.51 4.51 4.51 4.50 4.50 4.49 4.49 4.48 4.48 4.48 4.47 4.47 4.46 4.46 4.45 4.45 4.44 4.44 4.43 4.43 4.42 4.42 4.41 4.41 4.40 4.40 4.40 4.39 4.39 4.38 4.38 4.37 4.37 4.36 4.36 4.35 4.35 4.35 4.34 4.34 4.33 4.33 4.33 4.32 4.32 4.31 4.31 4.31 4.30 4.30 4.29 4.29 4.29 4.28 4.28 4.27 4.27 4.26 4.26 4.25 4.25 4.24 4.24 4.23 4.22 4.22 4.21 4.20 4.19 4.18 4.17 4.16 4.15 4.14 4.13 4.11 4.10 4.08 4.06 4.03 4.00 3.95 3.89 3.80 3.62 3.45 1.97 2.33 3.12 2.44 2.98 2.64 2.36 3.35 3.47 3.54 3.59 3.62 3.63 3.62 3.59 3.51 3.32 0.92 0.89 1.78 1.89 3.25 3.28 3.08 0.95 6.00 3.09 0.14 2.79 6.00 2.85 2.75 2.60 2.36 0.93 6.00 6.00 6.00 6.00 6.00 6.00 6.00 6.00 2.40 2.64 2.78 2.90 2.89 2.99 1.05 3.15 3.10 0.34 1.01 3.33 3.42 3.38 2.52 2.45 1.22 2.72 2.35 3.64 3.73 3.78 3.81 3.82 3.83 3.83 3.83 3.83 3.82 3.81 3.78 3.73 3.64 2.74 2.67 3.49 3.77 3.93 4.01 4.07 4.12 4.16 4.19 4.22 4.25 4.27 4.29 4.31 4.33 4.34 4.36 4.37 4.38 4.39 4.40 4.42 4.43 4.44 4.45 4.45 4.46 4.47 4.48 4.49 4.50 4.50 4.51 4.52 4.52
4.68 4.67 4.67 4.67 4.66 4.66 4.66 4.65 4.65 4.65 4.64 4.64 4.64 4.63 4.63 4.62 4.62 4.62 4.61 4.61 4.61 4.60 4.60 4.60 4.59 4.59 4.58 4.58 4.58 4.57 4.57 4.56 4.56 4.56 4.55 4.55 4.54 4.54 4.54 4.53 4.53 4.52 4.52 4.52 4.51 4.51 4.50 4.50 4.50 4.49 4.49 4.48 4.48 4.47 4.47 4.46 4.46 4.46 4.45 4.45 4.44 4.44 4.43 4.43 4.42 4.42 4.41 4.41 4.40 4.40 4.40 4.39 4.39 4.38 4.38 4.37 4.37 4.37 4.36 4.36 4.35 4.35 4.34 4.34 4.34 4.33 4.33 4.33 4.32 4.32 4.31 4.31 4.31 4.30 4.30 4.29 4.29 4.28 4.28 4.27 4.27 4.26 4.26 4.25 4.25 4.24 4.24 4.23 4.22 4.21 4.21 4.20 4.19 4.18 4.17 4.16 4.14 4.13 4.11 4.10 4.08 4.05 4.02 3.97 3.90 3.76 3.44 2.67 3.32 3.49 3.44 2.95 3.40 3.23 2.67 3.30 3.54 3.64 3.68 3.70 3.70 3.70 3.67 3.61 3.39 2.71 2.47 2.80 3.25 3.44 3.45 3.39 3.34 3.31 3.31 3.27 3.20 3.12 3.00 2.80 6.00 6.00 6.00 6.00 6.00 6.00 6.00 6.00 6.00 6.00 6.00 6.00 6.00 2.85 3.05 3.17 3.25 3.32 3.37 3.38 0.42 3.45 3.52 3.55 3.54 3.48 3.30 2.80 3.50 3.63 3.75 3.80 3.84 3.86 3.88 3.89 3.89 3.89 3.89 3.89 3.87 3.85 3.80 3.72 3.58 3.29 2.73 3.79 3.97 4.05 4.11 4.15 4.18 4.21 4.24 4.26 4.28 4.30 4.32 4.33 4.35 4.36 4.38 4.39 4.40 4.41 4.42 4.43 4.44 4.45 4.46 4.47 4.48 4.48 4.49 4.50 4.51 4.51 4.52 4.53
4.68 4.68 4.67 4.67 4.67 4.66 4.66 4.66 4.65 4.65 4.65 4.64 4.64 4.64 4.63 4.63 4.63 4.62 4.62 4.61 4.61 4.61 4.60 4.60 4.60 4.59 4.59 4.58 4.58 4.58 4.57 4.57 4.57 4.56 4.56 4.55 4.55 4.55 4.54 4.54 4.53 4.53 4.53 4.52 4.52 4.51 4.51 4.51 4.50 4.50 4.49 4.49 4.49 4.48 4.48 4.47 4.47 4.46 4.46 4.45 4.45 4.45 4.44 4.44 4.43 4.43 4.42 4.42 4.41 4.41 4.41 4.40 4.40 4.39 4.39 4.38 4.38 4.38 4.37 4.37 4.36 4.36 4.36 4.35 4.35 4.34 4.34 4.34 4.33 4.33 4.32 4.32 4.32 4.31 4.31 4.30 4.30 4.30 4.29 4.29 4.28 4.28 4.27 4.27 4.26 4.25 4.25 4.24 4.23 4.23 4.22 4.21 4.20 4.19 4.18 4.17 4.16 4.15 4.13 4.12 4.10 4.07 4.04 4.00 3.94 3.80 3.60 3.59 3.37 3.70 3.71 3.69 3.65 2.75 1.82 3.17 3.60 3.72 3.75 3.77 3.77 3.76 3.74 3.70 3.64 3.59 3.59 3.55 3.56 3.57 3.56 3.54 3.50 3.46 3.42 3.36 3.27 3.14 2.86 2.05 6.00 6.00 6.00 6.00 6.00 6.00 6.00 6.00 6.00 6.00 6.00 6.00 6.00 6.00 2.68 3.21 3.33 3.41 3.47 3.52 3.55 3.60 3.63 3.65 3.66 3.64 3.48 3.50 3.70 3.78 3.83 3.87 3.89 3.91 3.92 3.93 3.94 3.94 3.94 3.94 3.93 3.91 3.87 3.78 3.57 3.48 3.76 3.92 4.03 4.09 4.14 4.18 4.21 4.23 4.26 4.28 4.30 4.31 4.33 4.34 4.36 4.37 4.38 4.40 4.41 4.42 4.43 4.44 4.45 4.46 4.46 4.47 4.48 4.49 4.50 4.50 4.51 4.52 4.53 4.53
4.68 4.68 4.68 4.67 4.67 4.67 4.66 4.66 4.66 4.65 4.65 4.65 4.64 4.64 4.64 4.63 4.63 4.63 4.62 4.62 4.61 4.61 4.61 4.60 4.60 4.60 4.59 4.59 4.59 4.58 4.58 4.57 4.57 4.57 4.56 4.56 4.56 4.55 4.55 4.54 4.54 4.54 4.53 4.53 4.52 4.52 4.52 4.51 4.51 4.50 4.50 4.50 4.49 4.49 4.48 4.48 4.48 4.47 4.47 4.46 4.46 4.45 4.45 4.44 4.44 4.44 4.43 4.43 4.42 4.42 4.41 4.41 4.41 4.40 4.40 4.39 4.39 4.39 4.38 4.38 4.37 4.37 4.37 4.36 4.36 4.35 4.35 4.35 4.34 4.34 4.34 4.33 4.33 4.32 4.32 4.31 4.31 4.31 4.30 4.30 4.29 4.29 4.28 4.28 4.27 4.27 4.26 4.25 4.25 4.24 4.23 4.22 4.22 4.21 4.20 4.19 4.18 4.16 4.15 4.13 4.12 4.10 4.07 4.04 4.00 3.96 3.91 3.87 3.85 3.85 3.85 3.83 3.80 3.71 3.47 3.72 3.77 3.80 3.82 3.83 3.83 3.82 3.80 3.78 3.76 3.74 3.72 3.70 3.68 3.66 3.64 3.61 3.57 3.53 3.47 3.39 3.24 3.06 2.14 6.00 6.00 6.00 6.00 6.00 6.00 6.00 6.00 6.00 6.00 6.00 6.00 6.00 6.00 0.52 1.93 2.81 3.32 3.45 3.53 3.59 3.63 3.67 3.70 3.73 3.74 3.75 3.76 3.78 3.82 3.86 3.89 3.92 3.94 3.95 3.97 3.98 3.98 3.99 3.99 3.99 3.98 3.97 3.94 3.87 3.64 3.83 3.96 4.04 4.09 4.14 4.17 4.20 4.23 4.25 4.27 4.29 4.31 4.32 4.34 4.35 4.37 4.38 4.39 4.40 4.41 4.42 4.43 4.44 4.45 4.46 4.47 4.48 4.49 4.49 4.50 4.51 4.52 4.52 4.53 4.54
4.69 4.68 4.68 4.68 4.67 4.67 4.67 4.66 4.66 4.66 4.65 4.65 4.65 4.64 4.64 4.64 4.63 4.63 4.63 4.62 4.62 4.62 4.61 4.61 4.60 4.60 4.60 4.59 4.59 4.59 4.58 4.58 4.58 4.57 4.57 4.56 4.56 4.56 4.55 4.55 4.55 4.54 4.54 4.53 4.53 4.53 4.52 4.52 4.51 4.51 4.51 4.50 4.50 4.49 4.49 4.49 4.48 4.48 4.47 4.47 4.47 4.46 4.46 4.45 4.45 4.44 4.44 4.44 4.43 4.43 4.42 4.42 4.42 4.41 4.41 4.40 4.40 4.40 4.39 4.39 4.38 4.38 4.38 4.37 4.37 4.37 4.36 4.36 4.35 4.35 4.35 4.34 4.34 4.33 4.33 4.33 4.32 4.32 4.31 4.31 4.30 4.30 4.29 4.29 4.28 4.28 4.27 4.26 4.26 4.25 4.24 4.24 4.23 4.22 4.21 4.20 4.19 4.18 4.17 4.15 4.14 4.12 4.10 4.08 4.05 4.02 4.00 3.98 3.96 3.94 3.93 3.92 3.90 3.87 3.86 3.86 3.87 3.88 3.88 3.88 3.87 3.87 3.85 3.84 3.82 3.80 3.78 3.76 3.74 3.72 3.69 3.66 3.62 3.56 3.49 3.40 3.09 1.81 6.00 6.00 6.00 6.00 6.00 6.00 6.00 6.00 6.00 6.00 6.00 6.00 6.00 6.00 6.00 6.00 0.71 0.93 3.17 3.45 3.55 3.62 3.68 3.72 3.75 3.78 3.80 3.82 3.84 3.87 3.89 3.92 3.94 3.96 3.98 3.99 4.00 4.01 4.02 4.03 4.03 4.03 4.03 4.03 4.02 4.01 4.01 4.03 4.07 4.11 4.14 4.17 4.20 4.23 4.25 4.27 4.29 4.30 4.32 4.34 4.35 4.36 4.38 4.39 4.40 4.41 4.42 4.43 4.44 4.45 4.46 4.47 4.47 4.48 4.49 4.50 4.51 4.51 4.52 4.53 4.53 4.54
4.69 4.69 4.68 4.68 4.68 4.67 4.67 4.67 4.66 4.66 4.66 4.65 4.65 4.65 4.64 4.64 4.64 4.63 4.63 4.63 4.62 4.62 4.62 4.61 4.61 4.61 4.60 4.60 4.59 4.59 4.59 4.58 4.58 4.58 4.57 4.57 4.57 4.56 4.56 4.55 4.55 4.55 4.54 4.54 4.54 4.53 4.53 4.52 4.52 4.52 4.51 4.51 4.50 4.50 4.50 4.49 4.49 4.48 4.48 4.48 4.47 4.47 4.46 4.46 4.46 4.45 4.45 4.44 4.44 4.44 4.43 4.43 4.42 4.42 4.42 4.41 4.41 4.40 4.40 4.40 4.39 4.39 4.39 4.38 4.38 4.37 4.37 4.37 4.36 4.36 4.36 4.35 4.35 4.34 4.34 4.34 4.33 4.33 4.32 4.32 4.31 4.31 4.30 4.30 4.29 4.29 4.28 4.28 4.27 4.26 4.26 4.25 4.24 4.23 4.22 4.22 4.21 4.20 4.18 4.17 4.16 4.14 4.13 4.11 4.09 4.07 4.05 4.03 4.02 4.01 3.99 3.98 3.97 3.95 3.94 3.94 3.93 3.93 3.93 3.92 3.92 3.91 3.90 3.88 3.87 3.85 3.83 3.81 3.79 3.76 3.73 3.70 3.65 3.58 3.49 3.37 3.16 2.75 1.36 6.00 6.00 6.00 6.00 6.00 6.00 6.00 6.00 6.00 6.00 6.00 6.00 6.00 6.00 6.00 6.00 0.72 3.10 3.29 3.55 3.65 3.71 3.76 3.79 3.82 3.85 3.87 3.90 3.92 3.94 3.96 3.98 4.00 4.01 4.02 4.04 4.05 4.05 4.06 4.07 4.07 4.08 4.08 4.08 4.08 4.09 4.11 4.13 4.16 4.18 4.20 4.23 4.25 4.27 4.29 4.30 4.32 4.33 4.35 4.36 4.37 4.38 4.40 4.41 4.42 4.43 4.44 4.45 4.45 4.46 4.47 4.48 4.49 4.50 4.50 4.51 4.52 4.52 4.53 4.54 4.54
4.69 4.69 4.69 4.68 4.68 4.68 4.67 4.67 4.67 4.66 4.66 4.66 4.65 4.65 4.65 4.64 4.64 4.64 4.63 4.63 4.63 4.62 4.62 4.62 4.61 4.61 4.61 4.60 4.60 4.60 4.59 4.59 4.58 4.58 4.58 4.57 4.57 4.57 4.56 4.56 4.56 4.55 4.55 4.55 4.54 4.54 4.53 4.53 4.53 4.52 4.52 4.51 4.51 4.51 4.50 4.50 4.50 4.49 4.49 4.48 4.48 4.48 4.47 4.47 4.46 4.46 4.46 4.45 4.45 4.44 4.44 4.44 4.43 4.43 4.43 4.42 4.42 4.41 4.41 4.41 4.40 4.40 4.40 4.39 4.39 4.38 4.38 4.38 4.37 4.37 4.37 4.36 4.36 4.35 4.35 4.35 4.34 4.34 4.33 4.33 4.32 4.32 4.31 4.31 4.30 4.30 4.29 4.29 4.28 4.27 4.27 4.26 4.25 4.25 4.24 4.23 4.22 4.21 4.20 4.19 4.18 4.16 4.15 4.14 4.12 4.11 4.09 4.08 4.06 4.05 4.04 4.03 4.02 4.01 4.00 3.99 3.98 3.98 3.97 3.96 3.95 3.94 3.93 3.92 3.90 3.89 3.87 3.85 3.82 3.80 3.76 3.72 3.67 3.58 3.22 3.03 2.73 6.00 6.00 6.00 6.00 6.00 6.00 6.00 6.00 6.00 6.00 6.00 6.00 6.00 6.00 6.00 6.00 6.00 1.53 2.53 2.06 3.16 3.54 3.66 3.74 3.79 3.83 3.86 3.89 3.91 3.94 3.96 3.98 3.99 4.01 4.03 4.04 4.05 4.07 4.08 4.09 4.09 4.10 4.11 4.11 4.12 4.13 4.13 4.15 4.16 4.18 4.19 4.21 4.23 4.25 4.27 4.29 4.30 4.32 4.33 4.35 4.36 4.37 4.38 4.39 4.40 4.41 4.42 4.43 4.44 4.45 4.46 4.47 4.48 4.49 4.49 4.50 4.51 4.51 4.52 4.53 4.53 4.54 4.55
4.70 4.69 4.69 4.69 4.68 4.68 4.68 4.67 4.67 4.67 4.66 4.66 4.66 4.65 4.65 4.65 4.64 4.64 4.64 4.63 4.63 4.63 4.62 4.62 4.62 4.61 4.61 4.61 4.60 4.60 4.60 4.59 4.59 4.59 4.58 4.58 4.58 4.57 4.57 4.56 4.56 4.56 4.55 4.55 4.55 4.54 4.54 4.54 4.53 4.53 4.52 4.52 4.52 4.51 4.51 4.51 4.50 4.50 4.49 4.49 4.49 4.48 4.48 4.48 4.47 4.47 4.46 4.46 4.46 4.45 4.45 4.44 4.44 4.44 4.43 4.43 4.43 4.42 4.42 4.42 4.41 4.41 4.40 4.40 4.40 4.39 4.39 4.39 4.38 4.38 4.37 4.37 4.37 4.36 4.36 4.36 4.35 4.35 4.34 4.34 4.33 4.33 4.32 4.32 4.31 4.31 4.30 4.30 4.29 4.29 4.28 4.27 4.27 4.26 4.25 4.24 4.23 4.23 4.22 4.21 4.20 4.18 4.17 4.16 4.15 4.14 4.12 4.11 4.10 4.09 4.08 4.07 4.06 4.05 4.04 4.03 4.02 4.01 4.01 4.00 3.99 3.98 3.96 3.95 3.94 3.92 3.90 3.88 3.85 3.83 3.79 3.75 3.70 3.61 3.44 2.68 2.21 2.58 2.13 6.00 6.00 6.00 6.00 6.00 6.00 6.00 6.00 6.00 6.00 6.00 6.00 6.00 6.00 6.00 0.83 2.90 1.97 3.17 3.51 3.68 3.75 3.81 3.85 3.89 3.92 3.94 3.97 3.99 4.01 4.02 4.04 4.06 4.07 4.08 4.09 4.10 4.11 4.12 4.13 4.14 4.15 4.15 4.16 4.17 4.18 4.20 4.21 4.23 4.24 4.26 4.27 4.29 4.30 4.32 4.33 4.34 4.36 4.37 4.38 4.39 4.40 4.41 4.42 4.43 4.44 4.45 4.46 4.47 4.47 4.48 4.49 4.50 4.50 4.51 4.52 4.53 4.53 4.54 4.54 4.55
4.70 4.70 4.69 4.69 4.69 4.68 4.68 4.68 4.67 4.67 4.67 4.66 4.66 4.66 4.65 4.65 4.65 4.64 4.64 4.64 4.63 4.63 4.63 4.62 4.62 4.62 4.61 4.61 4.61 4.60 4.60 4.60 4.59 4.59 4.59 4.58 4.58 4.58 4.57 4.57 4.57 4.56 4.56 4.56 4.55 4.55 4.55 4.54 4.54 4.53 4.53 4.53 4.52 4.52 4.52 4.51 4.51 4.50 4.50 4.50 4.49 4.49 4.49 4.48 4.48 4.48 4.47 4.47 4.46 4.46 4.46 4.45 4.45 4.45 4.44 4.44 4.43 4.43 4.43 4.42 4.42 4.42 4.41 4.41 4.41 4.40 4.40 4.39 4.39 4.39 4.38 4.38 4.38 4.37 4.37 4.36 4.36 4.36 4.35 4.35 4.34 4.34 4.33 4.33 4.32 4.32 4.31 4.31 4.30 4.30 4.29 4.28 4.28 4.27 4.26 4.26 4.25 4.24 4.23 4.22 4.21 4.20 4.19 4.18 4.17 4.16 4.15 4.14 4.13 4.12 4.11 4.10 4.09 4.08 4.07 4.06 4.05 4.05 4.04 4.03 4.02 4.01 3.99 3.98 3.96 3.95 3.93 3.91 3.88 3.85 3.81 3.77 3.72 3.65 3.53 1.98 2.91 2.95 1.99 6.00 6.00 6.00 6.00 6.00 6.00 6.00 6.00 6.00 6.00 6.00 6.00 6.00 6.00 6.00 6.00 2.55 3.23 3.43 3.58 3.69 3.77 3.83 3.87 3.91 3.94 3.97 3.99 4.01 4.03 4.05 4.07 4.08 4.09 4.11 4.12 4.13 4.14 4.15 4.16 4.17 4.17 4.18 4.19 4.20 4.21 4.23 4.24 4.25 4.26 4.28 4.29 4.31 4.32 4.33 4.34 4.36 4.37 4.38 4.39 4.40 4.41 4.42 4.43 4.44 4.45 4.46 4.46 4.47 4.48 4.49 4.50 4.50 4.51 4.52 4.52 4.53 4.54 4.54 4.55 4.55
4.70 4.70 4.69 4.69 4.69 4.69 4.68 4.68 4.68 4.67 4.67 4.67 4.66 4.66 4.66 4.65 4.65 4.65 4.64 4.64 4.64 4.63 4.63 4.63 4.63 4.62 4.62 4.62 4.61 4.61 4.61 4.60 4.60 4.60 4.59 4.59 4.58 4.58 4.58 4.57 4.57 4.57 4.56 4.56 4.56 4.55 4.55 4.55 4.54 4.54 4.54 4.53 4.53 4.53 4.52 4.52 4.51 4.51 4.51 4.50 4.50 4.50 4.49 4.49 4.49 4.48 4.48 4.47 4.47 4.47 4.46 4.46 4.46 4.45 4.45 4.45 4.44 4.44 4.44 4.43 4.43 4.42 4.42 4.42 4.41 4.41 4.41 4.40 4.40 4.40 4.39 4.39 4.39 4.38 4.38 4.37 4.37 4.37 4.36 4.36 4.35 4.35 4.34 4.34 4.33 4.33 4.32 4.32 4.31 4.31 4.30 4.30 4.29 4.28 4.28 4.27 4.26 4.25 4.25 4.24 4.23 4.22 4.21 4.20 4.19 4.18 4.17 4.16 4.15 4.14 4.13 4.13 4.12 4.11 4.10 4.09 4.08 4.07 4.06 4.05 4.04 4.03 4.02 4.00 3.99 3.97 3.95 3.93 3.90 3.87 3.83 3.79 3.73 3.66 3.57 3.44 3.28 2.56 1.98 6.00 6.00 6.00 6.00 6.00 6.00 6.00 6.00 6.00 6.00 6.00 6.00 6.00 6.00 6.00 6.00 1.71 1.93 3.37 3.52 3.65 3.77 3.84 3.89 3.93 3.97 3.99 4.02 4.04 4.06 4.07 4.09 4.10 4.12 4.13 4.14 4.15 4.16 4.17 4.18 4.19 4.20 4.21 4.22 4.23 4.24 4.25 4.26 4.27 4.29 4.30 4.31 4.32 4.33 4.35 4.36 4.37 4.38 4.39 4.40 4.41 4.42 4.43 4.44 4.45 4.45 4.46 4.47 4.48 4.49 4.49 4.50 4.51 4.51 4.52 4.53 4.53 4.54 4.55 4.55 4.56
4.70 4.70 4.70 4.69 4.69 4.69 4.69 4.68 4.68 4.68 4.67 4.67 4.67 4.66 4.66 4.66 4.65 4.65 4.65 4.65 4.64 4.64 4.64 4.63 4.63 4.63 4.62 4.62 4.62 4.61 4.61 4.61 4.60 4.60 4.60 4.59 4.59 4.59 4.58 4.58 4.58 4.57 4.57 4.57 4.56 4.56 4.56 4.55 4.55 4.55 4.54 4.54 4.54 4.53 4.53 4.52 4.52 4.52 4.51 4.51 4.51 4.50 4.50 4.50 4.49 4.49 4.49 4.48 4.48 4.47 4.47 4.47 4.46 4.46 4.46 4.45 4.45 4.45 4.44 4.44 4.44 4.43 4.43 4.43 4.42 4.42 4.42 4.41 4.41 4.40 4.40 4.40 4.39 4.39 4.39 4.38 4.38 4.37 4.37 4.37 4.36 4.36 4.35 4.35 4.34 4.34 4.33 4.33 4.32 4.32 4.31 4.31 4.30 4.30 4.29 4.28 4.27 4.27 4.26 4.25 4.24 4.24 4.23 4.22 4.21 4.20 4.19 4.18 4.18 4.17 4.16 4.15 4.14 4.13 4.12 4.11 4.11 4.10 4.09 4.08 4.07 4.05 4.04 4.03 4.01 4.00 3.98 3.95 3.92 3.89 3.85 3.79 3.72 3.64 3.55 3.44 2.94 0.32 6.00 6.00 6.00 6.00 6.00 6.00 6.00 6.00 6.00 6.00 6.00 6.00 6.00 6.00 6.00 2.49 2.43 2.14 2.08 3.16 2.52 3.26 3.76 3.86 3.91 3.96 3.99 4.02 4.04 4.06 4.08 4.10 4.11 4.13 4.14 4.15 4.16 4.17 4.18 4.19 4.20 4.21 4.22 4.23 4.24 4.25 4.26 4.27 4.28 4.29 4.30 4.31 4.33 4.34 4.35 4.36 4.37 4.38 4.39 4.40 4.41 4.42 4.43 4.44 4.45 4.45 4.46 4.47 4.48 4.48 4.49 4.50 4.51 4.51 4.52 4.53 4.53 4.54 4.54 4.55 4.56 4.56
4.71 4.70 4.70 4.70 4.69 4.69 4.69 4.69 4.68 4.68 4.68 4.67 4.67 4.67 4.66 4.66 4.66 4.65 4.65 4.65 4.65 4.64 4.64 4.64 4.63 4.63 4.63 4.62 4.62 4.62 4.61 4.61 4.61 4.60 4.60 4.60 4.59 4.59 4.59 4.58 4.58 4.58 4.57 4.57 4.57 4.56 4.56 4.56 4.55 4.55 4.55 4.54 4.54 4.54 4.53 4.53 4.53 4.52 4.52 4.52 4.51 4.51 4.51 4.50 4.50 4.50 4.49 4.49 4.49 4.48 4.48 4.48 4.47 4.47 4.46 4.46 4.46 4.45 4.45 4.45 4.44 4.44 4.44 4.43 4.43 4.43 4.42 4.42 4.42 4.41 4.41 4.41 4.40 4.40 4.39 4.39 4.39 4.38 4.38 4.38 4.37 4.37 4.36 4.36 4.35 4.35 4.34 4.34 4.33 4.33 4.32 4.32 4.31 4.31 4.30 4.29 4.29 4.28 4.27 4.27 4.26 4.25 4.24 4.24 4.23 4.22 4.21 4.20 4.20 4.19 4.18 4.17 4.16 4.15 4.15 4.14 4.13 4.12 4.11 4.10 4.09 4.08 4.06 4.05 4.03 4.02 4.00 3.97 3.94 3.91 3.86 3.79 3.69 3.54 3.43 3.35 3.16 1.99 2.53 2.02 2.56 2.03 6.00 6.00 6.00 6.00 6.00 6.00 6.00 6.00 6.00 6.00 0.80 3.01 3.12 3.05 2.53 2.58 3.29 3.62 3.79 3.88 3.94 3.98 4.01 4.04 4.06 4.08 4.10 4.12 4.13 4.14 4.16 4.17 4.18 4.19 4.20 4.21 4.22 4.23 4.24 4.25 4.26 4.27 4.28 4.29 4.30 4.31 4.32 4.33 4.34 4.35 4.36 4.37 4.38 4.39 4.40 4.41 4.42 4.43 4.44 4.44 4.45 4.46 4.47 4.48 4.48 4.49 4.50 4.50 4.51 4.52 4.52 4.53 4.54 4.54 4.55 4.55 4.56 4.57
4.71 4.71 4.70 4.70 4.70 4.69 4.69 4.69 4.69 4.68 4.68 4.68 4.67 4.67 4.67 4.66 4.66 4.66 4.66 4.65 4.65 4.65 4.64 4.64 4.64 4.63 4.63 4.63 4.62 4.62 4.62 4.61 4.61 4.61 4.61 4.60 4.60 4.60 4.59 4.59 4.59 4.58 4.58 4.58 4.57 4.57 4.57 4.56 4.56 4.56 4.55 4.55 4.55 4.54 4.54 4.54 4.53 4.53 4.53 4.52 4.52 4.52 4.51 4.51 4.51 4.50 4.50 4.50 4.49 4.49 4.49 4.48 4.48 4.48 4.47 4.47 4.47 4.46 4.46 4.46 4.45 4.45 4.45 4.44 4.44 4.44 4.43 4.43 4.42 4.42 4.42 4.41 4.41 4.41 4.40 4.40 4.40 4.39 4.39 4.38 4.38 4.38 4.37 4.37 4.36 4.36 4.35 4.35 4.34 4.34 4.33 4.33 4.32 4.32 4.31 4.31 4.30 4.29 4.29 4.28 4.27 4.27 4.26 4.25 4.24 4.24 4.23 4.22 4.21 4.21 4.20 4.19 4.18 4.17 4.16 4.16 4.15 4.14 4.13 4.12 4.11 4.10 4.08 4.07 4.06 4.04 4.02 4.00 3.97 3.93 3.87 3.76 3.44 3.05 2.66 3.09 3.02 2.63 3.00 2.98 3.04 2.50 6.00 1.41 6.00 6.00 0.06 6.00 0.94 2.25 2.45 2.87 2.70 3.22 3.33 3.20 2.68 3.15 3.48 3.71 3.83 3.91 3.96 4.00 4.03 4.06 4.08 4.10 4.12 4.13 4.15 4.16 4.18 4.19 4.20 4.21 4.22 4.23 4.24 4.25 4.26 4.27 4.28 4.29 4.30 4.31 4.32 4.33 4.33 4.34 4.35 4.36 4.37 4.38 4.39 4.40 4.41 4.42 4.43 4.44 4.44 4.45 4.46 4.47 4.48 4.48 4.49 4.50 4.50 4.51 4.52 4.52 4.53 4.54 4.54 4.55 4.55 4.56 4.56 4.57
4.71 4.71 4.71 4.70 4.70 4.70 4.69 4.69 4.69 4.69 4.68 4.68 4.68 4.67 4.67 4.67 4.66 4.66 4.66 4.66 4.65 4.65 4.65 4.64 4.64 4.64 4.63 4.63 4.63 4.63 4.62 4.62 4.62 4.61 4.61 4.61 4.60 4.60 4.60 4.59 4.59 4.59 4.58 4.58 4.58 4.57 4.57 4.57 4.56 4.56 4.56 4.56 4.55 4.55 4.55 4.54 4.54 4.54 4.53 4.53 4.53 4.52 4.52 4.52 4.51 4.51 4.51 4.50 4.50 4.50 4.49 4.49 4.49 4.48 4.48 4.48 4.47 4.47 4.47 4.46 4.46 4.46 4.45 4.45 4.45 4.44 4.44 4.44 4.43 4.43 4.43 4.42 4.42 4.42 4.41 4.41 4.40 4.40 4.40 4.39 4.39 4.38 4.38 4.38 4.37 4.37 4.36 4.36 4.35 4.35 4.34 4.34 4.33 4.33 4.32 4.32 4.31 4.30 4.30 4.29 4.29 4.28 4.27 4.27 4.26 4.25 4.24 4.24 4.23 4.22 4.21 4.21 4.20 4.19 4.18 4.17 4.17 4.16 4.15 4.14 4.13 4.12 4.10 4.09 4.08 4.06 4.04 4.02 3.99 3.96 3.91 3.83 3.68 3.19 3.45 2.97 3.08 2.84 3.00 3.29 3.24 1.82 2.76 2.94 2.45 6.00 6.00 6.00 6.00 1.31 2.70 3.14 3.26 3.42 3.48 3.46 2.36 3.31 2.44 3.69 3.86 3.94 3.99 4.02 4.05 4.08 4.10 4.12 4.14 4.15 4.17 4.18 4.19 4.21 4.22 4.23 4.24 4.25 4.26 4.27 4.28 4.29 4.29 4.30 4.31 4.32 4.33 4.34 4.35 4.36 4.37 4.38 4.38 4.39 4.40 4.41 4.42 4.43 4.44 4.44 4.45 4.46 4.47 4.47 4.48 4.49 4.50 4.50 4.51 4.52 4.52 4.53 4.53 4.54 4.55 4.55 4.56 4.56 4.57 4.57
4.71 4.71 4.71 4.71 4.70 4.70 4.70 4.69 4.69 4.69 4.69 4.68 4.68 4.68 4.67 4.67 4.67 4.67 4.66 4.66 4.66 4.65 4.65 4.65 4.64 4.64 4.64 4.64 4.63 4.63 4.63 4.62 4.62 4.62 4.61 4.61 4.61 4.60 4.60 4.60 4.60 4.59 4.59 4.59 4.58 4.58 4.58 4.57 4.57 4.57 4.56 4.56 4.56 4.55 4.55 4.55 4.54 4.54 4.54 4.53 4.53 4.53 4.53 4.52 4.52 4.52 4.51 4.51 4.51 4.50 4.50 4.50 4.49 4.49 4.49 4.48 4.48 4.48 4.47 4.47 4.47 4.46 4.46 4.46 4.45 4.45 4.45 4.44 4.44 4.44 4.43 4.43 4.43 4.42 4.42 4.42 4.41 4.41 4.40 4.40 4.40 4.39 4.39 4.39 4.38 4.38 4.37 4.37 4.36 4.36 4.35 4.35 4.34 4.34 4.33 4.33 4.32 4.32 4.31 4.30 4.30 4.29 4.29 4.28 4.27 4.27 4.26 4.25 4.24 4.24 4.23 4.22 4.22 4.21 4.20 4.19 4.18 4.17 4.17 4.16 4.15 4.13 4.12 4.11 4.09 4.08 4.06 4.04 4.02 3.99 3.95 3.90 3.84 3.77 3.71 3.61 3.29 2.85 3.10 3.45 3.44 3.38 3.28 3.11 0.73 1.23 6.00 6.00 6.00 0.96 2.83 3.16 3.36 3.51 3.58 3.62 3.64 3.63 3.36 3.79 3.90 3.97 4.01 4.05 4.07 4.10 4.12 4.14 4.15 4.17 4.18 4.20 4.21 4.22 4.23 4.24 4.25 4.26 4.27 4.28 4.29 4.30 4.31 4.32 4.33 4.34 4.34 4.35 4.36 4.37 4.38 4.39 4.40 4.40 4.41 4.42 4.43 4.44 4.44 4.45 4.46 4.47 4.47 4.48 4.49 4.50 4.50 4.51 4.51 4.52 4.53 4.53 4.54 4.55 4.55 4.56 4.56 4.57 4.57 4.58
4.72 4.71 4.71 4.71 4.71 4.70 4.70 4.70 4.69 4.69 4.69 4.69 4.68 4.68 4.68 4.67 4.67 4.67 4.67 4.66 4.66 4.66 4.65 4.65 4.65 4.65 4.64 4.64 4.64 4.63 4.63 4.63 4.62 4.62 4.62 4.62 4.61 4.61 4.61 4.60 4.60 4.60 4.59 4.59 4.59 4.58 4.58 4.58 4.58 4.57 4.57 4.57 4.56 4.56 4.56 4.55 4.55 4.55 4.54 4.54 4.54 4.53 4.53 4.53 4.52 4.52 4.52 4.51 4.51 4.51 4.51 4.50 4.50 4.50 4.49 4.49 4.49 4.48 4.48 4.48 4.47 4.47 4.47 4.46 4.46 4.46 4.45 4.45 4.45 4.44 4.44 4.44 4.43 4.43 4.43 4.42 4.42 4.42 4.41 4.41 4.41 4.40 4.40 4.39 4.39 4.39 4.38 4.38 4.37 4.37 4.36 4.36 4.35 4.35 4.34 4.34 4.33 4.33 4.32 4.32 4.31 4.30 4.30 4.29 4.29 4.28 4.27 4.27 4.26 4.25 4.25 4.24 4.23 4.22 4.22 4.21 4.20 4.19 4.18 4.17 4.16 4.15 4.14 4.13 4.11 4.10 4.08 4.06 4.04 4.01 3.99 3.95 3.91 3.87 3.81 3.73 2.46 3.38 3.58 3.59 3.56 3.48 3.31 3.11 2.55 1.34 1.57 6.00 1.91 2.64 2.47 2.20 3.30 3.58 3.66 3.71 3.75 3.79 3.83 3.89 3.95 4.00 4.04 4.07 4.09 4.12 4.14 4.15 4.17 4.19 4.20 4.21 4.23 4.24 4.25 4.26 4.27 4.28 4.29 4.30 4.31 4.31 4.32 4.33 4.34 4.35 4.36 4.37 4.37 4.38 4.39 4.40 4.41 4.41 4.42 4.43 4.44 4.45 4.45 4.46 4.47 4.47 4.48 4.49 4.49 4.50 4.51 4.51 4.52 4.53 4.53 4.54 4.54 4.55 4.56 4.56 4.57 4.57 4.58 4.58
4.72 4.72 4.71 4.71 4.71 4.71 4.70 4.70 4.70 4.69 4.69 4.69 4.69 4.68 4.68 4.68 4.67 4.67 4.67 4.67 4.66 4.66 4.66 4.65 4.65 4.65 4.65 4.64 4.64 4.64 4.63 4.63 4.63 4.63 4.62 4.62 4.62 4.61 4.61 4.61 4.60 4.60 4.60 4.60 4.59 4.59 4.59 4.58 4.58 4.58 4.57 4.57 4.57 4.56 4.56 4.56 4.56 4.55 4.55 4.55 4.54 4.54 4.54 4.53 4.53 4.53 4.52 4.52 4.52 4.51 4.51 4.51 4.51 4.50 4.50 4.50 4.49 4.49 4.49 4.48 4.48 4.48 4.47 4.47 4.47 4.46 4.46 4.46 4.46 4.45 4.45 4.45 4.44 4.44 4.44 4.43 4.43 4.42 4.42 4.42 4.41 4.41 4.41 4.40 4.40 4.39 4.39 4.39 4.38 4.38 4.37 4.37 4.36 4.36 4.35 4.35 4.34 4.34 4.33 4.33 4.32 4.32 4.31 4.30 4.30 4.29 4.29 4.28 4.27 4.27 4.26 4.25 4.25 4.24 4.23 4.22 4.21 4.21 4.20 4.19 4.18 4.17 4.16 4.14 4.13 4.12 4.10 4.08 4.06 4.04 4.02 3.99 3.96 3.92 3.88 3.83 3.77 3.73 3.71 3.69 3.64 3.54 2.55 3.03 1.96 3.00 2.34 2.18 2.60 2.99 3.16 2.67 3.43 3.64 3.72 3.77 3.82 3.86 3.91 3.95 3.99 4.03 4.06 4.09 4.11 4.13 4.15 4.17 4.19 4.20 4.22 4.23 4.24 4.25 4.26 4.27 4.28 4.29 4.30 4.31 4.32 4.33 4.34 4.34 4.35 4.36 4.37 4.38 4.39 4.39 4.40 4.41 4.42 4.42 4.43 4.44 4.45 4.45 4.46 4.47 4.47 4.48 4.49 4.49 4.50 4.51 4.51 4.52 4.53 4.53 4.54 4.54 4.55 4.55 4.56 4.57 4.57 4.58 4.58 4.59
4.72 4.72 4.72 4.71 4.71 4.71 4.71 4.70 4.70 4.70 4.70 4.69 4.69 4.69 4.68 4.68 4.68 4.68 4.67 4.67 4.67 4.66 4.66 4.66 4.66 4.65 4.65 4.65 4.64 4.64 4.64 4.64 4.63 4.63 4.63 4.62 4.62 4.62 4.61 4.61 4.61 4.61 4.60 4.60 4.60 4.59 4.59 4.59 4.58 4.58 4.58 4.58 4.57 4.57 4.57 4.56 4.56 4.56 4.55 4.55 4.55 4.55 4.54 4.54 4.54 4.53 4.53 4.53 4.52 4.52 4.52 4.51 4.51 4.51 4.51 4.50 4.50 4.50 4.49 4.49 4.49 4.48 4.48 4.48 4.47 4.47 4.47 4.47 4.46 4.46 4.46 4.45 4.45 4.45 4.44 4.44 4.44 4.43 4.43 4.43 4.42 4.42 4.41 4.41 4.41 4.40 4.40 4.39 4.39 4.39 4.38 4.38 4.37 4.37 4.36 4.36 4.35 4.35 4.34 4.34 4.33 4.33 4.32 4.32 4.31 4.30 4.30 4.29 4.29 4.28 4.27 4.27 4.26 4.25 4.25 4.24 4.23 4.22 4.21 4.20 4.19 4.18 4.17 4.16 4.15 4.13 4.12 4.10 4.09 4.07 4.04 4.02 3.99 3.96 3.93 3.90 3.86 3.83 3.79 3.76 3.71 3.65 3.57 3.43 3.24 3.28 3.12 1.96 2.70 3.15 3.36 3.46 3.57 3.68 3.76 3.81 3.86 3.90 3.95 3.99 4.02 4.05 4.08 4.11 4.13 4.15 4.17 4.19 4.20 4.22 4.23 4.24 4.26 4.27 4.28 4.29 4.30 4.31 4.32 4.32 4.33 4.34 4.35 4.36 4.36 4.37 4.38 4.39 4.40 4.40 4.41 4.42 4.43 4.43 4.44 4.45 4.45 4.46 4.47 4.48 4.48 4.49 4.49 4.50 4.51 4.51 4.52 4.53 4.53 4.54 4.54 4.55 4.55 4.56 4.56 4.57 4.57 4.58 4.58 4.59
4.73 4.72 4.72 4.72 4.71 4.71 4.71 4.71 4.70 4.70 4.70 4.70 4.69 4.69 4.69 4.68 4.68 4.68 4.68 4.67 4.67 4.67 4.66 4.66 4.66 4.66 4.65 4.65 4.65 4.64 4.64 4.64 4.64 4.63 4.63 4.63 4.62 4.62 4.62 4.62 4.61 4.61 4.61 4.60 4.60 4.60 4.60 4.59 4.59 4.59 4.58 4.58 4.58 4.57 4.57 4.57 4.57 4.56 4.56 4.56 4.55 4.55 4.55 4.54 4.54 4.54 4.54 4.53 4.53 4.53 4.52 4.52 4.52 4.51 4.51 4.51 4.51 4.50 4.50 4.50 4.49 4.49 4.49 4.48 4.48 4.48 4.48 4.47 4.47 4.47 4.46 4.46 4.46 4.45 4.45 4.45 4.44 4.44 4.44 4.43 4.43 4.43 4.42 4.42 4.41 4.41 4.41 4.40 4.40 4.39 4.39 4.39 4.38 4.38 4.37 4.37 4.36 4.36 4.35 4.35 4.34 4.34 4.33 4.33 4.32 4.32 4.31 4.30 4.30 4.29 4.29 4.28 4.27 4.27 4.26 4.25 4.24 4.24 4.23 4.22 4.21 4.20 4.19 4.18 4.16 4.15 4.14 4.12 4.11 4.09 4.07 4.05 4.02 4.00 3.97 3.94 3.91 3.88 3.84 3.81 3.77 3.72 3.66 3.59 3.51 3.42 3.17 2.70 2.70 2.64 3.43 3.54 3.63 3.71 3.77 3.83 3.88 3.93 3.97 4.01 4.05 4.08 4.10 4.13 4.15 4.17 4.19 4.20 4.22 4.23 4.25 4.26 4.27 4.28 4.29 4.30 4.31 4.32 4.33 4.34 4.34 4.35 4.36 4.37 4.38 4.38 4.39 4.40 4.41 4.41 4.42 4.43 4.43 4.44 4.45 4.46 4.46 4.47 4.48 4.48 4.49 4.49 4.50 4.51 4.51 4.52 4.53 4.53 4.54 4.54 4.55 4.55 4.56 4.56 4.57 4.57 4.58 4.58 4.59 4.59
4.73 4.73 4.72 4.72 4.72 4.71 4.71 4.71 4.71 4.70 4.70 4.70 4.70 4.69 4.69 4.69 4.68 4.68 4.68 4.68 4.67 4.67 4.67 4.67 4.66 4.66 4.66 4.65 4.65 4.65 4.65 4.64 4.64 4.64 4.63 4.63 4.63 4.63 4.62 4.62 4.62 4.61 4.61 4.61 4.61 4.60 4.60 4.60 4.59 4.59 4.59 4.59 4.58 4.58 4.58 4.57 4.57 4.57 4.57 4.56 4.56 4.56 4.55 4.55 4.55 4.54 4.54 4.54 4.54 4.53 4.53 4.53 4.52 4.52 4.52 4.52 4.51 4.51 4.51 4.50 4.50 4.50 4.49 4.49 4.49 4.49 4.48 4.48 4.48 4.47 4.47 4.47 4.46 4.46 4.46 4.45 4.45 4.45 4.44 4.44 4.44 4.43 4.43 4.43 4.42 4.42 4.42 4.41 4.41 4.40 4.40 4.40 4.39 4.39 4.38 4.38 4.37 4.37 4.36 4.36 4.35 4.35 4.34 4.34 4.33 4.33 4.32 4.32 4.31 4.30 4.30 4.29 4.29 4.28 4.27 4.26 4.26 4.25 4.24 4.23 4.22 4.21 4.20 4.19 4.18 4.17 4.15 4.14 4.12 4.11 4.09 4.07 4.05 4.02 4.00 3.97 3.94 3.91 3.88 3.84 3.80 3.75 3.70 3.64 3.57 3.48 3.36 3.15 2.17 3.27 3.42 3.53 3.62 3.70 3.77 3.84 3.90 3.95 3.99 4.03 4.06 4.09 4.12 4.15 4.17 4.19 4.20 4.22 4.23 4.25 4.26 4.27 4.28 4.29 4.30 4.31 4.32 4.33 4.34 4.35 4.36 4.36 4.37 4.38 4.39 4.39 4.40 4.41 4.42 4.42 4.43 4.44 4.44 4.45 4.46 4.46 4.47 4.48 4.48 4.49 4.50 4.50 4.51 4.51 4.52 4.53 4.53 4.54 4.54 4.55 4.55 4.56 4.56 4.57 4.57 4.58 4.58 4.59 4.59 4.60
4.73 4.73 4.73 4.72 4.72 4.72 4.71 4.71 4.71 4.71 4.70 4.70 4.70 4.70 4.69 4.69 4.69 4.69 4.68 4.68 4.68 4.67 4.67 4.67 4.67 4.66 4.66 4.66 4.66 4.65 4.65 4.65 4.64 4.64 4.64 4.64 4.63 4.63 4.63 4.62 4.62 4.62 4.62 4.61 4.61 4.61 4.60 4.60 4.60 4.60 4.59 4.59 4.59 4.58 4.58 4.58 4.58 4.57 4.57 4.57 4.56 4.56 4.56 4.56 4.55 4.55 4.55 4.54 4.54 4.54 4.54 4.53 4.53 4.53 4.52 4.52 4.52 4.52 4.51 4.51 4.51 4.50 4.50 4.50 4.49 4.49 4.49 4.49 4.48 4.48 4.48 4.47 4.47 4.47 4.46 4.46 4.46 4.45 4.45 4.45 4.44 4.44 4.44 4.43 4.43 4.43 4.42 4.42 4.42 4.41 4.41 4.40 4.40 4.40 4.39 4.39 4.38 4.38 4.37 4.37 4.36 4.36 4.35 4.35 4.34 4.34 4.33 4.33 4.32 4.32 4.31 4.30 4.30 4.29 4.28 4.28 4.27 4.26 4.25 4.25 4.24 4.23 4.22 4.21 4.20 4.18 4.17 4.16 4.14 4.13 4.11 4.09 4.07 4.05 4.02 4.00 3.97 3.94 3.90 3.86 3.82 3.77 3.72 3.66 3.58 3.47 3.33 3.06 2.91 2.74 3.21 3.41 3.56 3.65 3.74 3.82 3.89 3.95 4.00 4.05 4.08 4.11 4.14 4.16 4.18 4.20 4.22 4.23 4.25 4.26 4.27 4.29 4.30 4.31 4.32 4.33 4.33 4.34 4.35 4.36 4.37 4.38 4.38 4.39 4.40 4.40 4.41 4.42 4.43 4.43 4.44 4.45 4.45 4.46 4.47 4.47 4.48 4.48 4.49 4.50 4.50 4.51 4.51 4.52 4.53 4.53 4.54 4.54 4.55 4.55 4.56 4.56 4.57 4.57 4.58 4.58 4.59 4.59 4.60 4.60
4.73 4.73 4.73 4.73 4.72 4.72 4.72 4.71 4.71 4.71 4.71 4.70 4.70 4.70 4.70 4.69 4.69 4.69 4.69 4.68 4.68 4.68 4.68 4.67 4.67 4.67 4.66 4.66 4.66 4.66 4.65 4.65 4.65 4.65 4.64 4.64 4.64 4.63 4.63 4.63 4.63 4.62 4.62 4.62 4.61 4.61 4.61 4.61 4.60 4.60 4.60 4.60 4.59 4.59 4.59 4.58 4.58 4.58 4.58 4.57 4.57 4.57 4.56 4.56 4.56 4.56 4.55 4.55 4.55 4.54 4.54 4.54 4.54 4.53 4.53 4.53 4.52 4.52 4.52 4.52 4.51 4.51 4.51 4.50 4.50 4.50 4.50 4.49 4.49 4.49 4.48 4.48 4.48 4.47 4.47 4.47 4.46 4.46 4.46 4.46 4.45 4.45 4.45 4.44 4.44 4.43 4.43 4.43 4.42 4.42 4.42 4.41 4.41 4.40 4.40 4.40 4.39 4.39 4.38 4.38 4.37 4.37 4.36 4.36 4.35 4.35 4.34 4.34 4.33 4.33 4.32 4.32 4.31 4.30 4.30 4.29 4.28 4.28 4.27 4.26 4.25 4.24 4.23 4.22 4.21 4.20 4.19 4.17 4.16 4.14 4.13 4.11 4.09 4.07 4.04 4.02 3.99 3.96 3.92 3.88 3.83 3.78 3.72 3.65 3.54 3.22 3.15 2.97 3.35 3.26 2.32 3.07 3.34 2.85 3.60 3.76 3.87 3.95 4.01 4.06 4.10 4.13 4.16 4.18 4.20 4.22 4.23 4.25 4.26 4.28 4.29 4.30 4.31 4.32 4.33 4.34 4.35 4.35 4.36 4.37 4.38 4.39 4.39 4.40 4.41 4.41 4.42 4.43 4.43 4.44 4.45 4.45 4.46 4.47 4.47 4.48 4.49 4.49 4.50 4.50 4.51 4.51 4.52 4.53 4.53 4.54 4.54 4.55 4.55 4.56 4.56 4.57 4.57 4.58 4.58 4.59 4.59 4.60 4.60 4.61
4.74 4.73 4.73 4.73 4.73 4.72 4.72 4.72 4.72 4.71 4.71 4.71 4.70 4.70 4.70 4.70 4.69 4.69 4.69 4.69 4.68 4.68 4.68 4.68 4.67 4.67 4.67 4.67 4.66 4.66 4.66 4.65 4.65 4.65 4.65 4.64 4.64 4.64 4.64 4.63 4.63 4.63 4.62 4.62 4.62 4.62 4.61 4.61 4.61 4.61 4.60 4.60 4.60 4.59 4.59 4.59 4.59 4.58 4.58 4.58 4.57 4.57 4.57 4.57 4.56 4.56 4.56 4.56 4.55 4.55 4.55 4.54 4.54 4.54 4.54 4.53 4.53 4.53 4.52 4.52 4.52 4.52 4.51 4.51 4.51 4.50 4.50 4.50 4.50 4.49 4.49 4.49 4.48 4.48 4.48 4.48 4.47 4.47 4.47 4.46 4.46 4.46 4.45 4.45 4.45 4.44 4.44 4.44 4.43 4.43 4.42 4.42 4.42 4.41 4.41 4.40 4.40 4.40 4.39 4.39 4.38 4.38 4.37 4.37 4.36 4.36 4.35 4.35 4.34 4.34 4.33 4.33 4.32 4.31 4.31 4.30 4.29 4.29 4.28 4.27 4.26 4.25 4.25 4.24 4.22 4.21 4.20 4.19 4.17 4.16 4.14 4.12 4.10 4.08 4.06 4.03 4.00 3.97 3.93 3.89 3.83 3.77 3.70 3.62 3.49 3.05 2.66 3.36 3.55 3.57 3.51 3.04 3.05 3.02 3.28 3.66 3.82 3.94 4.02 4.08 4.12 4.15 4.17 4.20 4.22 4.23 4.25 4.26 4.28 4.29 4.30 4.31 4.32 4.33 4.34 4.35 4.36 4.37 4.37 4.38 4.39 4.40 4.40 4.41 4.42 4.42 4.43 4.44 4.44 4.45 4.46 4.46 4.47 4.47 4.48 4.49 4.49 4.50 4.50 4.51 4.52 4.52 4.53 4.53 4.54 4.54 4.55 4.55 4.56 4.56 4.57 4.57 4.58 4.58 4.59 4.59 4.60 4.60 4.60 4.61
4.74 4.74 4.73 4.73 4.73 4.73 4.72 4.72 4.72 4.72 4.71 4.71 4.71 4.71 4.70 4.70 4.70 4.69 4.69 4.69 4.69 4.68 4.68 4.68 4.68 4.67 4.67 4.67 4.67 4.66 4.66 4.66 4.66 4.65 4.65 4.65 4.64 4.64 4.64 4.64 4.63 4.63 4.63 4.63 4.62 4.62 4.62 4.62 4.61 4.61 4.61 4.60 4.60 4.60 4.60 4.59 4.59 4.59 4.59 4.58 4.58 4.58 4.57 4.57 4.57 4.57 4.56 4.56 4.56 4.56 4.55 4.55 4.55 4.54 4.54 4.54 4.54 4.53 4.53 4.53 4.52 4.52 4.52 4.52 4.51 4.51 4.51 4.51 4.50 4.50 4.50 4.49 4.49 4.49 4.48 4.48 4.48 4.48 4.47 4.47 4.47 4.46 4.46 4.46 4.45 4.45 4.45 4.44 4.44 4.44 4.43 4.43 4.42 4.42 4.42 4.41 4.41 4.40 4.40 4.40 4.39 4.39 4.38 4.38 4.37 4.37 4.36 4.36 4.35 4.35 4.34 4.34 4.33 4.33 4.32 4.31 4.31 4.30 4.29 4.28 4.28 4.27 4.26 4.25 4.24 4.23 4.22 4.20 4.19 4.17 4.16 4.14 4.12 4.10 4.08 4.05 4.02 3.98 3.94 3.89 3.82 3.72 3.63 3.55 3.43 2.56 3.41 3.59 3.68 3.71 3.69 3.63 3.65 3.60 3.44 2.23 3.29 3.94 4.04 4.10 4.14 4.17 4.19 4.21 4.23 4.25 4.26 4.28 4.29 4.30 4.31 4.32 4.33 4.34 4.35 4.36 4.37 4.38 4.38 4.39 4.40 4.41 4.41 4.42 4.43 4.43 4.44 4.45 4.45 4.46 4.46 4.47 4.48 4.48 4.49 4.49 4.50 4.51 4.51 4.52 4.52 4.53 4.53 4.54 4.54 4.55 4.55 4.56 4.56 4.57 4.57 4.58 4.58 4.59 4.59 4.60 4.60 4.60 4.61 4.61
4.74 4.74 4.74 4.73 4.73 4.73 4.73 4.72 4.72 4.72 4.72 4.71 4.71 4.71 4.71 4.70 4.70 4.70 4.70 4.69 4.69 4.69 4.69 4.68 4.68 4.68 4.67 4.67 4.67 4.67 4.66 4.66 4.66 4.66 4.65 4.65 4.65 4.65 4.64 4.64 4.64 4.64 4.63 4.63 4.63 4.62 4.62 4.62 4.62 4.61 4.61 4.61 4.61 4.60 4.60 4.60 4.60 4.59 4.59 4.59 4.58 4.58 4.58 4.58 4.57 4.57 4.57 4.57 4.56 4.56 4.56 4.56 4.55 4.55 4.55 4.54 4.54 4.54 4.54 4.53 4.53 4.53 4.53 4.52 4.52 4.52 4.51 4.51 4.51 4.51 4.50 4.50 4.50 4.49 4.49 4.49 4.49 4.48 4.48 4.48 4.47 4.47 4.47 4.46 4.46 4.46 4.45 4.45 4.45 4.44 4.44 4.44 4.43 4.43 4.43 4.42 4.42 4.41 4.41 4.41 4.40 4.40 4.39 4.39 4.38 4.38 4.37 4.37 4.36 4.36 4.35 4.35 4.34 4.34 4.33 4.32 4.32 4.31 4.30 4.30 4.29 4.28 4.27 4.26 4.25 4.24 4.23 4.22 4.20 4.19 4.17 4.16 4.14 4.11 4.09 4.06 4.03 3.99 3.95 3.89 3.81 3.59 3.33 3.10 3.17 3.22 3.35 3.70 3.78 3.82 3.83 3.83 3.82 3.78 3.63 3.48 3.86 4.00 4.07 4.12 4.16 4.19 4.21 4.23 4.25 4.26 4.28 4.29 4.30 4.32 4.33 4.34 4.35 4.35 4.36 4.37 4.38 4.39 4.39 4.40 4.41 4.42 4.42 4.43 4.44 4.44 4.45 4.45 4.46 4.47 4.47 4.48 4.48 4.49 4.50 4.50 4.51 4.51 4.52 4.52 4.53 4.53 4.54 4.54 4.55 4.55 4.56 4.56 4.57 4.57 4.58 4.58 4.59 4.59 4.60 4.60 4.60 4.61 4.61 4.62
4.74 4.74 4.74 4.74 4.73 4.73 4.73 4.73 4.72 4.72 4.72 4.72 4.71 4.71 4.71 4.71 4.70 4.70 4.70 4.70 4.69 4.69 4.69 4.69 4.68 4.68 4.68 4.68 4.67 4.67 4.67 4.67 4.66 4.66 4.66 4.65 4.65 4.65 4.65 4.64 4.64 4.64 4.64 4.63 4.63 4.63 4.63 4.62 4.62 4.62 4.62 4.61 4.61 4.61 4.61 4.60 4.60 4.60 4.59 4.59 4.59 4.59 4.58 4.58 4.58 4.58 4.57 4.57 4.57 4.57 4.56 4.56 4.56 4.56 4.55 4.55 4.55 4.54 4.54 4.54 4.54 4.53 4.53 4.53 4.53 4.52 4.52 4.52 4.51 4.51 4.51 4.51 4.50 4.50 4.50 4.50 4.49 4.49 4.49 4.48 4.48 4.48 4.47 4.47 4.47 4.46 4.46 4.46 4.45 4.45 4.45 4.44 4.44 4.44 4.43 4.43 4.43 4.42 4.42 4.41 4.41 4.41 4.40 4.40 4.39 4.39 4.38 4.38 4.37 4.37 4.36 4.36 4.35 4.35 4.34 4.34 4.33 4.32 4.32 4.31 4.30 4.29 4.28 4.28 4.27 4.26 4.24 4.23 4.22 4.20 4.19 4.17 4.15 4.13 4.10 4.08 4.04 4.00 3.96 3.90 3.81 3.65 3.29 0.86 2.72 3.55 3.70 3.81 3.86 3.90 3.92 3.93 3.93 3.91 3.84 3.60 3.96 4.06 4.11 4.15 4.18 4.21 4.23 4.25 4.27 4.28 4.29 4.31 4.32 4.33 4.34 4.35 4.36 4.37 4.37 4.38 4.39 4.40 4.41 4.41 4.42 4.43 4.43 4.44 4.44 4.45 4.46 4.46 4.47 4.47 4.48 4.49 4.49 4.50 4.50 4.51 4.51 4.52 4.52 4.53 4.53 4.54 4.54 4.55 4.55 4.56 4.56 4.57 4.57 4.58 4.58 4.59 4.59 4.60 4.60 4.60 4.61 4.61 4.62 4.62
4.75 4.74 4.74 4.74 4.74 4.73 4.73 4.73 4.73 4.72 4.72 4.72 4.72 4.71 4.71 4.71 4.71 4.70 4.70 4.70 4.70 4.69 4.69 4.69 4.69 4.68 4.68 4.68 4.68 4.67 4.67 4.67 4.67 4.66 4.66 4.66 4.66 4.65 4.65 4.65 4.65 4.64 4.64 4.64 4.64 4.63 4.63 4.63 4.63 4.62 4.62 4.62 4.62 4.61 4.61 4.61 4.60 4.60 4.60 4.60 4.59 4.59 4.59 4.59 4.58 4.58 4.58 4.58 4.57 4.57 4.57 4.57 4.56 4.56 4.56 4.56 4.55 4.55 4.55 4.54 4.54 4.54 4.54 4.53 4.53 4.53 4.53 4.52 4.52 4.52 4.52 4.51 4.51 4.51 4.50 4.50 4.50 4.50 4.49 4.49 4.49 4.48 4.48 4.48 4.47 4.47 4.47 4.47 4.46 4.46 4.46 4.45 4.45 4.44 4.44 4.44 4.43 4.43 4.43 4.42 4.42 4.41 4.41 4.41 4.40 4.40 4.39 4.39 4.38 4.38 4.37 4.37 4.36 4.36 4.35 4.35 4.34 4.33 4.33 4.32 4.31 4.31 4.30 4.29 4.28 4.27 4.26 4.25 4.23 4.22 4.20 4.19 4.17 4.14 4.12 4.09 4.05 4.01 3.96 3.90 3.80 3.49 3.18 3.32 3.41 3.62 3.82 3.89 3.94 3.97 3.99 4.00 4.01 4.01 4.01 4.02 4.07 4.12 4.15 4.18 4.21 4.23 4.25 4.27 4.28 4.30 4.31 4.32 4.33 4.34 4.35 4.36 4.37 4.38 4.39 4.39 4.40 4.41 4.41 4.42 4.43 4.43 4.44 4.45 4.45 4.46 4.47 4.47 4.48 4.48 4.49 4.49 4.50 4.50 4.51 4.51 4.52 4.52 4.53 4.53 4.54 4.54 4.55 4.55 4.56 4.56 4.57 4.57 4.58 4.58 4.59 4.59 4.60 4.60 4.60 4.61 4.61 4.62 4.62 4.62
4.75 4.75 4.74 4.74 4.74 4.74 4.73 4.73 4.73 4.73 4.72 4.72 4.72 4.72 4.71 4.71 4.71 4.71 4.70 4.70 4.70 4.70 4.69 4.69 4.69 4.69 4.68 4.68 4.68 4.68 4.67 4.67 4.67 4.67 4.66 4.66 4.66 4.66 4.65 4.65 4.65 4.65 4.64 4.64 4.64 4.64 4.63 4.63 4.63 4.63 4.62 4.62 4.62 4.62 4.61 4.61 4.61 4.61 4.60 4.60 4.60 4.60 4.59 4.59 4.59 4.59 4.58 4.58 4.58 4.58 4.57 4.57 4.57 4.57 4.56 4.56 4.56 4.56 4.55 4.55 4.55 4.55 4.54 4.54 4.54 4.53 4.53 4.53 4.53 4.52 4.52 4.52 4.52 4.51 4.51 4.51 4.50 4.50 4.50 4.50 4.49 4.49 4.49 4.48 4.48 4.48 4.48 4.47 4.47 4.47 4.46 4.46 4.46 4.45 4.45 4.45 4.44 4.44 4.43 4.43 4.43 4.42 4.42 4.42 4.41 4.41 4.40 4.40 4.39 4.39 4.38 4.38 4.37 4.37 4.36 4.36 4.35 4.35 4.34 4.33 4.33 4.32 4.31 4.30 4.29 4.28 4.27 4.26 4.25 4.23 4.22 4.20 4.18 4.16 4.13 4.10 4.06 4.02 3.96 3.89 3.80 3.64 3.25 3.57 3.71 3.82 3.90 3.96 4.00 4.02 4.04 4.06 4.07 4.08 4.10 4.12 4.14 4.17 4.19 4.22 4.24 4.25 4.27 4.29 4.30 4.31 4.32 4.33 4.34 4.35 4.36 4.37 4.38 4.39 4.40 4.40 4.41 4.42 4.42 4.43 4.44 4.44 4.45 4.46 4.46 4.47 4.47 4.48 4.48 4.49 4.50 4.50 4.51 4.51 4.52 4.52 4.53 4.53 4.54 4.54 4.55 4.55 4.56 4.56 4.56 4.57 4.57 4.58 4.58 4.59 4.59 4.60 4.60 4.60 4.61 4.61 4.62 4.62 4.62 4.63
4.75 4.75 4.75 4.74 4.74 4.74 4.74 4.73 4.73 4.73 4.73 4.72 4.72 4.72 4.72 4.71 4.71 4.71 4.71 4.71 4.70 4.70 4.70 4.70 4.69 4.69 4.69 4.69 4.68 4.68 4.68 4.68 4.67 4.67 4.67 4.67 4.66 4.66 4.66 4.66 4.65 4.65 4.65 4.65 4.64 4.64 4.64 4.64 4.63 4.63 4.63 4.63 4.62 4.62 4.62 4.62 4.61 4.61 4.61 4.61 4.60 4.60 4.60 4.60 4.59 4.59 4.59 4.59 4.58 4.58 4.58 4.58 4.57 4.57 4.57 4.57 4.56 4.56 4.56 4.56 4.55 4.55 4.55 4.55 4.54 4.54 4.54 4.54 4.53 4.53 4.53 4.52 4.52 4.52 4.52 4.51 4.51 4.51 4.51 4.50 4.50 4.50 4.49 4.49 4.49 4.49 4.48 4.48 4.48 4.47 4.47 4.47 4.46 4.46 4.46 4.45 4.45 4.45 4.44 4.44 4.44 4.43 4.43 4.42 4.42 4.42 4.41 4.41 4.40 4.40 4.39 4.39 4.38 4.38 4.37 4.37 4.36 4.36 4.35 4.34 4.34 4.33 4.32 4.31 4.31 4.30 4.29 4.28 4.26 4.25 4.23 4.22 4.20 4.18 4.15 4.12 4.07 4.02 3.95 3.87 3.76 3.61 3.16 3.64 3.80 3.90 3.96 4.01 4.05 4.07 4.09 4.11 4.13 4.14 4.15 4.17 4.19 4.21 4.23 4.24 4.26 4.28 4.29 4.30 4.32 4.33 4.34 4.35 4.36 4.37 4.38 4.38 4.39 4.40 4.41 4.41 4.42 4.43 4.43 4.44 4.45 4.45 4.46 4.46 4.47 4.48 4.48 4.49 4.49 4.50 4.50 4.51 4.51 4.52 4.52 4.53 4.53 4.54 4.54 4.55 4.55 4.56 4.56 4.57 4.57 4.57 4.58 4.58 4.59 4.59 4.60 4.60 4.60 4.61 4.61 4.62 4.62 4.62 4.63 4.63
4.75 4.75 4.75 4.75 4.74 4.74 4.74 4.74 4.73 4.73 4.73 4.73 4.72 4.72 4.72 4.72 4.72 4.71 4.71 4.71 4.71 4.70 4.70 4.70 4.70 4.69 4.69 4.69 4.69 4.68 4.68 4.68 4.68 4.67 4.67 4.67 4.67 4.66 4.66 4.66 4.66 4.66 4.65 4.65 4.65 4.65 4.64 4.64 4.64 4.64 4.63 4.63 4.63 4.63 4.62 4.62 4.62 4.62 4.61 4.61 4.61 4.61 4.60 4.60 4.60 4.60 4.59 4.59 4.59 4.59 4.58 4.58 4.58 4.58 4.57 4.57 4.57 4.57 4.56 4.56 4.56 4.56 4.55 4.55 4.55 4.55 4.54 4.54 4.54 4.54 4.53 4.53 4.53 4.53 4.52 4.52 4.52 4.51 4.51 4.51 4.51 4.50 4.50 4.50 4.50 4.49 4.49 4.49 4.48 4.48 4.48 4.47 4.47 4.47 4.46 4.46 4.46 4.45 4.45 4.45 4.44 4.44 4.44 4.43 4.43 4.42 4.42 4.42 4.41 4.41 4.40 4.40 4.39 4.39 4.38 4.38 4.37 4.37 4.36 4.36 4.35 4.34 4.33 4.33 4.32 4.31 4.30 4.29 4.28 4.27 4.25 4.23 4.22 4.19 4.17 4.13 4.08 4.02 3.93 3.80 3.47 3.08 3.53 3.43 3.81 3.95 4.02 4.06 4.09 4.12 4.14 4.15 4.17 4.18 4.20 4.21 4.22 4.24 4.25 4.27 4.28 4.30 4.31 4.32 4.33 4.34 4.35 4.36 4.37 4.38 4.39 4.40 4.40 4.41 4.42 4.42 4.43 4.44 4.44 4.45 4.46 4.46 4.47 4.47 4.48 4.48 4.49 4.49 4.50 4.50 4.51 4.51 4.52 4.52 4.53 4.53 4.54 4.54 4.55 4.55 4.56 4.56 4.57 4.57 4.58 4.58 4.58 4.59 4.59 4.60 4.60 4.60 4.61 4.61 4.62 4.62 4.62 4.63 4.63 4.64
4.76 4.75 4.75 4.75 4.75 4.74 4.74 4.74 4.74 4.73 4.73 4.73 4.73 4.73 4.72 4.72 4.72 4.72 4.71 4.71 4.71 4.71 4.70 4.70 4.70 4.70 4.69 4.69 4.69 4.69 4.69 4.68 4.68 4.68 4.68 4.67 4.67 4.67 4.67 4.66 4.66 4.66 4.66 4.65 4.65 4.65 4.65 4.64 4.64 4.64 4.64 4.63 4.63 4.63 4.63 4.63 4.62 4.62 4.62 4.62 4.61 4.61 4.61 4.61 4.60 4.60 4.60 4.60 4.59 4.59 4.59 4.59 4.58 4.58 4.58 4.58 4.57 4.57 4.57 4.57 4.56 4.56 4.56 4.56 4.55 4.55 4.55 4.55 4.54 4.54 4.54 4.54 4.53 4.53 4.53 4.53 4.52 4.52 4.52 4.52 4.51 4.51 4.51 4.50 4.50 4.50 4.50 4.49 4.49 4.49 4.48 4.48 4.48 4.47 4.47 4.47 4.47 4.46 4.46 4.45 4.45 4.45 4.44 4.44 4.44 4.43 4.43 4.43 4.42 4.42 4.41 4.41 4.40 4.40 4.39 4.39 4.38 4.38 4.37 4.37 4.36 4.35 4.35 4.34 4.33 4.32 4.31 4.30 4.29 4.28 4.27 4.25 4.23 4.21 4.19 4.15 4.11 4.02 3.81 3.54 3.67 3.81 3.84 3.73 3.87 4.02 4.08 4.11 4.14 4.16 4.18 4.19 4.20 4.22 4.23 4.24 4.25 4.27 4.28 4.29 4.30 4.32 4.33 4.34 4.35 4.36 4.37 4.38 4.38 4.39 4.40 4.41 4.41 4.42 4.43 4.43 4.44 4.45 4.45 4.46 4.46 4.47 4.48 4.48 4.49 4.49 4.50 4.50 4.51 4.51 4.52 4.52 4.53 4.53 4.54 4.54 4.54 4.55 4.55 4.56 4.56 4.57 4.57 4.58 4.58 4.58 4.59 4.59 4.60 4.60 4.61 4.61 4.61 4.62 4.62 4.62 4.63 4.63 4.64 4.64
4.76 4.76 4.75 4.75 4.75 4.75 4.74 4.74 4.74 4.74 4.74 4.73 4.73 4.73 4.73 4.72 4.72 4.72 4.72 4.71 4.71 4.71 4.71 4.71 4.70 4.70 4.70 4.70 4.69 4.69 4.69 4.69 4.68 4.68 4.68 4.68 4.67 4.67 4.67 4.67 4.67 4.66 4.66 4.66 4.66 4.65 4.65 4.65 4.65 4.64 4.64 4.64 4.64 4.63 4.63 4.63 4.63 4.62 4.62 4.62 4.62 4.62 4.61 4.61 4.61 4.61 4.60 4.60 4.60 4.60 4.59 4.59 4.59 4.59 4.58 4.58 4.58 4.58 4.57 4.57 4.57 4.57 4.56 4.56 4.56 4.56 4.55 4.55 4.55 4.55 4.54 4.54 4.54 4.54 4.53 4.53 4.53 4.53 4.52 4.52 4.52 4.52 4.51 4.51 4.51 4.51 4.50 4.50 4.50 4.49 4.49 4.49 4.48 4.48 4.48 4.48 4.47 4.47 4.47 4.46 4.46 4.46 4.45 4.45 4.45 4.44 4.44 4.43 4.43 4.43 4.42 4.42 4.41 4.41 4.40 4.40 4.39 4.39 4.38 4.38 4.37 4.37 4.36 4.35 4.34 4.34 4.33 4.32 4.31 4.30 4.29 4.27 4.26 4.24 4.21 4.18 4.14 4.08 3.97 3.90 3.93 3.99 4.01 4.02 4.05 4.10 4.13 4.16 4.18 4.20 4.21 4.22 4.24 4.25 4.26 4.27 4.28 4.29 4.30 4.31 4.32 4.33 4.34 4.35 4.36 4.37 4.38 4.39 4.40 4.40 4.41 4.42 4.42 4.43 4.44 4.44 4.45 4.46 4.46 4.47 4.47 4.48 4.48 4.49 4.49 4.50 4.50 4.51 4.51 4.52 4.52 4.53 4.53 4.54 4.54 4.55 4.55 4.56 4.56 4.56 4.57 4.57 4.58 4.58 4.59 4.59 4.59 4.60 4.60 4.61 4.61 4.61 4.62 4.62 4.63 4.63 4.63 4.64 4.64 4.64
